2.646,0.192,0.384
2.647,0.197,0.384
2.648,0.201,0.384
2.448,0.191,0.355
2.442,0.194,0.355
2.442,0.199,0.355
2.665,0.222,0.387
2.672,0.227,0.388
2.680,0.233,0.389
2.688,0.238,0.391
2.696,0.244,0.392
2.704,0.249,0.393
2.712,0.255,0.394
2.720,0.261,0.395
2.728,0.266,0.397
2.737,0.272,0.398
2.745,0.278,0.399
2.753,0.284,0.401
2.761,0.289,0.402
2.770,0.295,0.403
2.778,0.301,0.404
2.787,0.307,0.406
2.795,0.313,0.407
2.804,0.319,0.408
2.813,0.325,0.410
2.821,0.331,0.411
2.830,0.338,0.413
2.839,0.344,0.414
2.848,0.350,0.415
2.857,0.356,0.417
2.866,0.363,0.418
2.875,0.369,0.420
2.884,0.375,0.421
2.893,0.382,0.422
2.903,0.388,0.424
3.185,0.444,0.465
3.184,0.449,0.465
3.187,0.455,0.466
2.978,0.502,0.437
2.971,0.506,0.436
2.970,0.511,0.436
2.974,0.518,0.437
2.791,-0.511,0.419
2.792,-0.506,0.419
2.795,-0.502,0.419
3.013,-0.524,0.451
3.014,-0.519,0.451
3.017,-0.514,0.452
3.017,-0.404,0.449
2.893,-0.382,0.430
2.782,-0.362,0.414
2.773,-0.356,0.412
2.769,-0.350,0.412
2.765,-0.345,0.411
2.761,-0.339,0.410
2.758,-0.334,0.410
2.754,-0.329,0.409
2.750,-0.323,0.408
2.746,-0.318,0.408
2.742,-0.312,0.407
2.739,-0.307,0.407
2.735,-0.302,0.406
2.731,-0.296,0.405
2.727,-0.291,0.405
2.724,-0.286,0.404
2.720,-0.280,0.403
2.716,-0.275,0.403
2.713,-0.270,0.402
2.709,-0.264,0.402
2.705,-0.259,0.401
2.702,-0.254,0.400
2.698,-0.249,0.400
2.694,-0.244,0.399
2.691,-0.238,0.398
2.687,-0.233,0.398
2.683,-0.228,0.397
2.680,-0.223,0.397
2.676,-0.218,0.396
2.673,-0.213,0.396
2.669,-0.208,0.395
2.666,-0.203,0.394
2.662,-0.198,0.394
2.659,-0.193,0.393
2.655,-0.188,0.393
2.652,-0.183,0.392
2.648,-0.178,0.392
2.645,-0.173,0.391
2.641,-0.168,0.390
2.638,-0.163,0.390
2.634,-0.158,0.389
2.631,-0.153,0.389
2.627,-0.148,0.388
2.624,-0.143,0.388
2.620,-0.138,0.387
2.617,-0.133,0.387
2.614,-0.128,0.386
2.610,-0.124,0.386
2.607,-0.119,0.385
2.603,-0.114,0.384
2.600,-0.109,0.384
2.597,-0.104,0.383
2.596,-0.100,0.383
2.596,-0.095,0.383
2.597,-0.090,0.383
2.597,-0.086,0.383
2.598,-0.081,0.383
2.599,-0.077,0.384
2.600,-0.072,0.384
2.601,-0.067,0.384
2.601,-0.063,0.384
2.602,-0.058,0.384
2.603,-0.053,0.384
2.604,-0.049,0.384
2.605,-0.044,0.384
2.606,-0.040,0.384
2.606,-0.035,0.385
2.607,-0.030,0.385
2.404,-0.024,0.355
2.403,-0.019,0.355
2.408,-0.015,0.355
2.610,-0.012,0.385
2.611,-0.007,0.385
2.612,-0.002,0.385
2.613,0.002,0.385
2.614,0.007,0.386
2.615,0.012,0.386
2.615,0.016,0.386
2.616,0.021,0.386
2.617,0.026,0.386
2.618,0.030,0.386
2.619,0.035,0.386
2.619,0.040,0.386
2.620,0.044,0.387
2.621,0.049,0.387
2.622,0.054,0.387
2.623,0.059,0.387
2.624,0.063,0.387
2.624,0.068,0.387
2.625,0.073,0.387
2.626,0.077,0.388
2.627,0.082,0.388
2.628,0.087,0.388
2.629,0.092,0.388
2.629,0.096,0.388
2.630,0.101,0.388
2.631,0.106,0.388
2.632,0.111,0.389
2.633,0.115,0.389
2.634,0.120,0.389
2.634,0.125,0.389
2.635,0.130,0.389
2.636,0.134,0.389
2.637,0.139,0.390
2.638,0.144,0.390
2.639,0.149,0.390
2.640,0.153,0.390
2.640,0.158,0.390
2.641,0.163,0.390
2.642,0.168,0.391
2.643,0.172,0.391
2.644,0.177,0.391
2.645,0.182,0.391
2.645,0.187,0.391
2.646,0.192,0.391
2.647,0.197,0.392
2.648,0.201,0.392
2.452,0.191,0.363
2.447,0.195,0.362
2.448,0.199,0.362
2.665,0.222,0.394
2.672,0.227,0.396
2.680,0.233,0.397
2.688,0.238,0.398
2.696,0.244,0.399
2.704,0.249,0.401
2.712,0.255,0.402
2.720,0.261,0.403
2.728,0.266,0.404
2.737,0.272,0.406
2.745,0.278,0.407
2.753,0.284,0.408
2.761,0.289,0.410
2.770,0.295,0.411
2.778,0.301,0.412
2.787,0.307,0.414
2.795,0.313,0.415
2.804,0.319,0.416
2.813,0.325,0.418
2.821,0.331,0.419
2.830,0.338,0.420
2.839,0.344,0.422
2.848,0.350,0.423
2.857,0.356,0.425
2.866,0.363,0.426
2.875,0.369,0.428
2.884,0.375,0.429
2.893,0.382,0.431
2.903,0.388,0.432
3.184,0.438,0.474
3.183,0.443,0.474
3.187,0.450,0.475
2.975,0.496,0.445
2.970,0.501,0.444
2.969,0.506,0.444
2.793,-0.507,0.427
2.792,-0.501,0.426
2.795,-0.497,0.427
3.015,-0.519,0.460
3.014,-0.513,0.460
3.018,-0.508,0.460
3.017,-0.404,0.458
2.893,-0.382,0.439
2.782,-0.362,0.422
2.773,-0.356,0.420
2.769,-0.350,0.420
2.765,-0.345,0.419
2.761,-0.339,0.418
2.758,-0.334,0.418
2.754,-0.329,0.417
2.750,-0.323,0.416
2.746,-0.318,0.416
2.742,-0.312,0.415
2.739,-0.307,0.414
2.735,-0.302,0.414
2.731,-0.296,0.413
2.727,-0.291,0.412
2.724,-0.286,0.412
2.720,-0.280,0.411
2.716,-0.275,0.410
2.713,-0.270,0.410
2.709,-0.264,0.409
2.705,-0.259,0.409
2.702,-0.254,0.408
2.698,-0.249,0.407
2.694,-0.244,0.407
2.691,-0.238,0.406
2.687,-0.233,0.405
2.683,-0.228,0.405
2.680,-0.223,0.404
2.676,-0.218,0.404
2.673,-0.213,0.403
2.669,-0.208,0.402
2.666,-0.203,0.402
2.662,-0.198,0.401
2.659,-0.193,0.401
2.655,-0.188,0.400
2.652,-0.183,0.400
2.648,-0.178,0.399
2.645,-0.173,0.398
2.641,-0.168,0.398
2.638,-0.163,0.397
2.634,-0.158,0.397
2.631,-0.153,0.396
2.627,-0.148,0.396
2.624,-0.143,0.395
2.620,-0.138,0.394
2.617,-0.133,0.394
2.614,-0.128,0.393
2.610,-0.124,0.393
2.607,-0.119,0.392
2.603,-0.114,0.392
2.600,-0.109,0.391
2.597,-0.104,0.391
2.596,-0.100,0.390
2.596,-0.095,0.390
2.597,-0.090,0.391
2.597,-0.086,0.391
2.598,-0.081,0.391
2.599,-0.077,0.391
2.600,-0.072,0.391
2.601,-0.067,0.391
2.601,-0.063,0.391
2.602,-0.058,0.391
2.603,-0.053,0.391
2.604,-0.049,0.391
2.605,-0.044,0.392
2.606,-0.040,0.392
2.606,-0.035,0.392
2.415,-0.028,0.363
2.409,-0.024,0.362
2.410,-0.019,0.362
2.419,-0.015,0.364
2.610,-0.012,0.392
2.611,-0.007,0.393
2.612,-0.002,0.393
2.613,0.002,0.393
2.614,0.007,0.393
2.615,0.012,0.393
2.615,0.016,0.393
2.616,0.021,0.393
2.617,0.026,0.393
2.618,0.030,0.394
2.619,0.035,0.394
2.619,0.040,0.394
2.620,0.044,0.394
2.621,0.049,0.394
2.622,0.054,0.394
2.623,0.059,0.394
2.624,0.063,0.395
2.624,0.068,0.395
2.625,0.073,0.395
2.626,0.077,0.395
2.627,0.082,0.395
2.628,0.087,0.395
2.629,0.092,0.395
2.629,0.096,0.396
2.630,0.101,0.396
2.631,0.106,0.396
2.632,0.111,0.396
2.633,0.115,0.396
2.634,0.120,0.396
2.634,0.125,0.396
2.635,0.130,0.397
2.636,0.134,0.397
2.637,0.139,0.397
2.638,0.144,0.397
2.639,0.149,0.397
2.640,0.153,0.397
2.640,0.158,0.398
2.641,0.163,0.398
2.642,0.168,0.398
2.643,0.172,0.398
2.644,0.177,0.398
2.645,0.182,0.398
2.645,0.187,0.399
2.646,0.192,0.399
2.647,0.197,0.399
2.648,0.201,0.399
2.456,0.191,0.370
2.454,0.195,0.370
2.457,0.200,0.371
2.665,0.222,0.402
2.672,0.227,0.403
2.680,0.233,0.404
2.688,0.238,0.406
2.696,0.244,0.407
2.704,0.249,0.408
2.712,0.255,0.409
2.720,0.261,0.411
2.728,0.266,0.412
2.737,0.272,0.413
2.745,0.278,0.415
2.753,0.284,0.416
2.761,0.289,0.417
2.770,0.295,0.419
2.778,0.301,0.420
2.787,0.307,0.421
2.795,0.313,0.423
2.804,0.319,0.424
2.813,0.325,0.426
2.821,0.331,0.427
2.830,0.338,0.428
2.839,0.344,0.430
2.848,0.350,0.431
2.857,0.356,0.433
2.866,0.363,0.434
2.875,0.369,0.436
2.884,0.375,0.437
2.893,0.382,0.439
2.903,0.388,0.440
3.183,0.432,0.483
3.181,0.437,0.483
2.972,0.490,0.453
2.969,0.495,0.452
2.969,0.500,0.453
2.794,-0.502,0.435
2.793,-0.496,0.434
2.795,-0.492,0.435
3.017,-0.514,0.469
3.015,-0.508,0.468
3.018,-0.503,0.468
3.017,-0.404,0.466
2.893,-0.382,0.447
2.782,-0.362,0.430
2.773,-0.356,0.428
2.769,-0.350,0.427
2.765,-0.345,0.427
2.761,-0.339,0.426
2.758,-0.334,0.425
2.754,-0.329,0.425
2.750,-0.323,0.424
2.746,-0.318,0.423
2.742,-0.312,0.423
2.739,-0.307,0.422
2.735,-0.302,0.421
2.731,-0.296,0.421
2.727,-0.291,0.420
2.724,-0.286,0.419
2.720,-0.280,0.419
2.716,-0.275,0.418
2.713,-0.270,0.417
2.709,-0.264,0.417
2.705,-0.259,0.416
2.702,-0.254,0.415
2.698,-0.249,0.415
2.694,-0.244,0.414
2.691,-0.238,0.414
2.687,-0.233,0.413
2.683,-0.228,0.412
2.680,-0.223,0.412
2.676,-0.218,0.411
2.673,-0.213,0.411
2.669,-0.208,0.410
2.666,-0.203,0.409
2.662,-0.198,0.409
2.659,-0.193,0.408
2.655,-0.188,0.408
2.652,-0.183,0.407
2.648,-0.178,0.406
2.645,-0.173,0.406
2.641,-0.168,0.405
2.638,-0.163,0.405
2.634,-0.158,0.404
2.631,-0.153,0.404
2.627,-0.148,0.403
2.624,-0.143,0.402
2.620,-0.138,0.402
2.617,-0.133,0.401
2.614,-0.128,0.401
2.610,-0.124,0.400
2.607,-0.119,0.400
2.603,-0.114,0.399
2.600,-0.109,0.398
2.597,-0.104,0.398
2.596,-0.100,0.398
2.596,-0.095,0.398
2.597,-0.090,0.398
2.597,-0.086,0.398
2.598,-0.081,0.398
2.599,-0.077,0.398
2.600,-0.072,0.398
2.601,-0.067,0.398
2.601,-0.063,0.398
2.602,-0.058,0.399
2.603,-0.053,0.399
2.604,-0.049,0.399
2.605,-0.044,0.399
2.606,-0.040,0.399
2.606,-0.035,0.399
2.420,-0.028,0.371
2.415,-0.024,0.370
2.416,-0.019,0.370
2.610,-0.016,0.400
2.610,-0.012,0.400
2.611,-0.007,0.400
2.612,-0.002,0.400
2.613,0.002,0.400
2.614,0.007,0.400
2.615,0.012,0.400
2.615,0.016,0.400
2.616,0.021,0.401
2.617,0.026,0.401
2.618,0.030,0.401
2.619,0.035,0.401
2.619,0.040,0.401
2.620,0.044,0.401
2.621,0.049,0.401
2.622,0.054,0.402
2.623,0.059,0.402
2.624,0.063,0.402
2.624,0.068,0.402
2.625,0.073,0.402
2.626,0.077,0.402
2.627,0.082,0.402
2.628,0.087,0.403
2.629,0.092,0.403
2.629,0.096,0.403
2.630,0.101,0.403
2.631,0.106,0.403
2.632,0.111,0.403
2.633,0.115,0.404
2.634,0.120,0.404
2.634,0.125,0.404
2.635,0.130,0.404
2.636,0.134,0.404
2.637,0.139,0.404
2.638,0.144,0.405
2.639,0.149,0.405
2.640,0.153,0.405
2.640,0.158,0.405
2.641,0.163,0.405
2.642,0.168,0.405
2.643,0.172,0.406
2.644,0.177,0.406
2.645,0.182,0.406
2.645,0.187,0.406
2.646,0.192,0.406
2.647,0.197,0.406
2.466,0.187,0.379
2.460,0.191,0.378
2.460,0.196,0.378
2.657,0.216,0.408
2.665,0.222,0.409
2.672,0.227,0.411
2.680,0.233,0.412
2.688,0.238,0.413
2.696,0.244,0.415
2.704,0.249,0.416
2.712,0.255,0.417
2.720,0.261,0.418
2.728,0.266,0.420
2.737,0.272,0.421
2.745,0.278,0.422
2.753,0.284,0.424
2.761,0.289,0.425
2.770,0.295,0.427
2.778,0.301,0.428
2.787,0.307,0.429
2.795,0.313,0.431
2.804,0.319,0.432
2.813,0.325,0.434
2.821,0.331,0.435
2.830,0.338,0.436
2.839,0.344,0.438
2.848,0.350,0.439
2.857,0.356,0.441
2.866,0.363,0.442
2.875,0.369,0.444
2.884,0.375,0.445
2.893,0.382,0.447
2.903,0.388,0.448
3.181,0.431,0.492
2.970,0.484,0.461
2.968,0.489,0.461
2.968,0.495,0.461
2.796,-0.497,0.443
2.794,-0.491,0.442
2.796,-0.487,0.442
2.801,-0.482,0.443
3.018,-0.509,0.477
3.017,-0.503,0.477
3.018,-0.498,0.477
3.017,-0.404,0.475
2.893,-0.382,0.455
2.782,-0.362,0.437
2.773,-0.356,0.436
2.769,-0.350,0.435
2.765,-0.345,0.435
2.761,-0.339,0.434
2.758,-0.334,0.433
2.754,-0.329,0.432
2.750,-0.323,0.432
2.746,-0.318,0.431
2.742,-0.312,0.430
2.739,-0.307,0.430
2.735,-0.302,0.429
2.731,-0.296,0.428
2.727,-0.291,0.428
2.724,-0.286,0.427
2.720,-0.280,0.426
2.716,-0.275,0.426
2.713,-0.270,0.425
2.709,-0.264,0.424
2.705,-0.259,0.424
2.702,-0.254,0.423
2.698,-0.249,0.422
2.694,-0.244,0.422
2.691,-0.238,0.421
2.687,-0.233,0.421
2.683,-0.228,0.420
2.680,-0.223,0.419
2.676,-0.218,0.419
2.673,-0.213,0.418
2.669,-0.208,0.417
2.666,-0.203,0.417
2.662,-0.198,0.416
2.659,-0.193,0.416
2.655,-0.188,0.415
2.652,-0.183,0.414
2.648,-0.178,0.414
2.645,-0.173,0.413
2.641,-0.168,0.413
2.638,-0.163,0.412
2.634,-0.158,0.411
2.631,-0.153,0.411
2.627,-0.148,0.410
2.624,-0.143,0.410
2.620,-0.138,0.409
2.617,-0.133,0.409
2.614,-0.128,0.408
2.610,-0.124,0.407
2.607,-0.119,0.407
2.603,-0.114,0.406
2.600,-0.109,0.406
2.597,-0.104,0.405
2.596,-0.100,0.405
2.596,-0.095,0.405
2.597,-0.090,0.405
2.597,-0.086,0.405
2.598,-0.081,0.405
2.599,-0.077,0.405
2.600,-0.072,0.406
2.601,-0.067,0.406
2.601,-0.063,0.406
2.602,-0.058,0.406
2.603,-0.053,0.406
2.604,-0.049,0.406
2.605,-0.044,0.406
2.606,-0.040,0.406
2.606,-0.035,0.406
2.424,-0.028,0.378
2.421,-0.024,0.378
2.422,-0.019,0.378
2.610,-0.016,0.407
2.610,-0.012,0.407
2.611,-0.007,0.407
2.612,-0.002,0.407
2.613,0.002,0.407
2.614,0.007,0.408
2.615,0.012,0.408
2.615,0.016,0.408
2.616,0.021,0.408
2.617,0.026,0.408
2.618,0.030,0.408
2.619,0.035,0.408
2.619,0.040,0.409
2.620,0.044,0.409
2.621,0.049,0.409
2.622,0.054,0.409
2.623,0.059,0.409
2.624,0.063,0.409
2.624,0.068,0.409
2.625,0.073,0.410
2.626,0.077,0.410
2.627,0.082,0.410
2.628,0.087,0.410
2.629,0.092,0.410
2.629,0.096,0.410
2.630,0.101,0.410
2.631,0.106,0.411
2.632,0.111,0.411
2.633,0.115,0.411
2.634,0.120,0.411
2.634,0.125,0.411
2.635,0.130,0.411
2.636,0.134,0.412
2.637,0.139,0.412
2.638,0.144,0.412
2.639,0.149,0.412
2.640,0.153,0.412
2.640,0.158,0.412
2.641,0.163,0.413
2.642,0.168,0.413
2.643,0.172,0.413
2.644,0.177,0.413
2.645,0.182,0.413
2.645,0.187,0.414
2.646,0.192,0.414
2.647,0.197,0.414
2.470,0.188,0.386
2.466,0.192,0.386
2.467,0.196,0.386
2.657,0.216,0.416
2.665,0.222,0.417
2.672,0.227,0.418
2.680,0.233,0.420
2.688,0.238,0.421
2.696,0.244,0.422
2.704,0.249,0.423
2.712,0.255,0.425
2.720,0.261,0.426
2.728,0.266,0.427
2.737,0.272,0.429
2.745,0.278,0.430
2.753,0.284,0.432
2.761,0.289,0.433
2.770,0.295,0.434
2.778,0.301,0.436
2.787,0.307,0.437
2.795,0.313,0.439
2.804,0.319,0.440
2.813,0.325,0.441
2.821,0.331,0.443
2.830,0.338,0.444
2.839,0.344,0.446
2.848,0.350,0.447
2.857,0.356,0.449
2.866,0.363,0.450
2.875,0.369,0.452
2.884,0.375,0.454
2.893,0.382,0.455
2.903,0.388,0.457
2.968,0.478,0.469
2.966,0.484,0.469
2.968,0.489,0.469
2.796,-0.487,0.450
2.796,-0.481,0.450
2.799,-0.477,0.451
3.018,-0.498,0.486
3.019,-0.492,0.485
3.022,-0.487,0.486
3.017,-0.404,0.483
2.893,-0.382,0.463
2.782,-0.362,0.445
2.773,-0.356,0.444
2.769,-0.350,0.443
2.765,-0.345,0.442
2.761,-0.339,0.442
2.758,-0.334,0.441
2.754,-0.329,0.440
2.750,-0.323,0.440
2.746,-0.318,0.439
2.742,-0.312,0.438
2.739,-0.307,0.437
2.735,-0.302,0.437
2.731,-0.296,0.436
2.727,-0.291,0.435
2.724,-0.286,0.435
2.720,-0.280,0.434
2.716,-0.275,0.433
2.713,-0.270,0.433
2.709,-0.264,0.432
2.705,-0.259,0.431
2.702,-0.254,0.431
2.698,-0.249,0.430
2.694,-0.244,0.429
2.691,-0.238,0.429
2.687,-0.233,0.428
2.683,-0.228,0.427
2.680,-0.223,0.427
2.676,-0.218,0.426
2.673,-0.213,0.426
2.669,-0.208,0.425
2.666,-0.203,0.424
2.662,-0.198,0.424
2.659,-0.193,0.423
2.655,-0.188,0.422
2.652,-0.183,0.422
2.648,-0.178,0.421
2.645,-0.173,0.421
2.641,-0.168,0.420
2.638,-0.163,0.419
2.634,-0.158,0.419
2.631,-0.153,0.418
2.627,-0.148,0.418
2.624,-0.143,0.417
2.620,-0.138,0.417
2.617,-0.133,0.416
2.614,-0.128,0.415
2.610,-0.124,0.415
2.607,-0.119,0.414
2.603,-0.114,0.414
2.600,-0.109,0.413
2.597,-0.104,0.413
2.596,-0.100,0.412
2.596,-0.095,0.412
2.597,-0.090,0.412
2.597,-0.086,0.413
2.598,-0.081,0.413
2.599,-0.077,0.413
2.600,-0.072,0.413
2.601,-0.067,0.413
2.601,-0.063,0.413
2.602,-0.058,0.413
2.603,-0.053,0.413
2.604,-0.049,0.413
2.605,-0.044,0.414
2.606,-0.040,0.414
2.606,-0.035,0.414
2.429,-0.028,0.386
2.427,-0.024,0.385
2.431,-0.020,0.386
2.610,-0.016,0.414
2.610,-0.012,0.414
2.611,-0.007,0.414
2.612,-0.002,0.415
2.613,0.002,0.415
2.614,0.007,0.415
2.615,0.012,0.415
2.615,0.016,0.415
2.616,0.021,0.415
2.617,0.026,0.415
2.618,0.030,0.416
2.619,0.035,0.416
2.619,0.040,0.416
2.620,0.044,0.416
2.621,0.049,0.416
2.622,0.054,0.416
2.623,0.059,0.416
2.624,0.063,0.417
2.624,0.068,0.417
2.625,0.073,0.417
2.626,0.077,0.417
2.627,0.082,0.417
2.628,0.087,0.417
2.629,0.092,0.418
2.629,0.096,0.418
2.630,0.101,0.418
2.631,0.106,0.418
2.632,0.111,0.418
2.633,0.115,0.418
2.634,0.120,0.418
2.634,0.125,0.419
2.635,0.130,0.419
2.636,0.134,0.419
2.637,0.139,0.419
2.638,0.144,0.419
2.639,0.149,0.420
2.640,0.153,0.420
2.640,0.158,0.420
2.641,0.163,0.420
2.642,0.168,0.420
2.643,0.172,0.420
2.644,0.177,0.421
2.645,0.182,0.421
2.645,0.187,0.421
2.646,0.192,0.421
2.647,0.197,0.421
2.474,0.188,0.394
2.472,0.192,0.394
2.478,0.197,0.395
2.657,0.216,0.423
2.665,0.222,0.424
2.672,0.227,0.426
2.680,0.233,0.427
2.688,0.238,0.428
2.696,0.244,0.430
2.704,0.249,0.431
2.712,0.255,0.432
2.720,0.261,0.434
2.728,0.266,0.435
2.737,0.272,0.437
2.745,0.278,0.438
2.753,0.284,0.439
2.761,0.289,0.441
2.770,0.295,0.442
2.778,0.301,0.444
2.787,0.307,0.445
2.795,0.313,0.446
2.804,0.319,0.448
2.813,0.325,0.449
2.821,0.331,0.451
2.830,0.338,0.452
2.839,0.344,0.454
2.848,0.350,0.455
2.857,0.356,0.457
2.866,0.363,0.459
2.875,0.369,0.460
2.884,0.375,0.462
2.893,0.382,0.463
2.903,0.388,0.465
2.966,0.473,0.477
2.965,0.478,0.477
2.967,0.484,0.477
2.797,-0.482,0.459
2.796,-0.476,0.458
2.799,-0.472,0.459
3.020,-0.492,0.494
3.019,-0.487,0.494
3.022,-0.482,0.494
3.017,-0.404,0.492
2.893,-0.382,0.471
2.782,-0.362,0.453
2.773,-0.356,0.452
2.769,-0.350,0.451
2.765,-0.345,0.450
2.761,-0.339,0.449
2.758,-0.334,0.449
2.754,-0.329,0.448
2.750,-0.323,0.447
2.746,-0.318,0.447
2.742,-0.312,0.446
2.739,-0.307,0.445
2.735,-0.302,0.444
2.731,-0.296,0.444
2.727,-0.291,0.443
2.724,-0.286,0.442
2.720,-0.280,0.442
2.716,-0.275,0.441
2.713,-0.270,0.440
2.709,-0.264,0.440
2.705,-0.259,0.439
2.702,-0.254,0.438
2.698,-0.249,0.438
2.694,-0.244,0.437
2.691,-0.238,0.436
2.687,-0.233,0.436
2.683,-0.228,0.435
2.680,-0.223,0.434
2.676,-0.218,0.434
2.673,-0.213,0.433
2.669,-0.208,0.432
2.666,-0.203,0.432
2.662,-0.198,0.431
2.659,-0.193,0.431
2.655,-0.188,0.430
2.652,-0.183,0.429
2.648,-0.178,0.429
2.645,-0.173,0.428
2.641,-0.168,0.428
2.638,-0.163,0.427
2.634,-0.158,0.426
2.631,-0.153,0.426
2.627,-0.148,0.425
2.624,-0.143,0.424
2.620,-0.138,0.424
2.617,-0.133,0.423
2.614,-0.128,0.423
2.610,-0.124,0.422
2.607,-0.119,0.422
2.603,-0.114,0.421
2.600,-0.109,0.420
2.597,-0.104,0.420
2.596,-0.100,0.420
2.596,-0.095,0.420
2.597,-0.090,0.420
2.597,-0.086,0.420
2.598,-0.081,0.420
2.599,-0.077,0.420
2.600,-0.072,0.420
2.601,-0.067,0.420
2.601,-0.063,0.420
2.602,-0.058,0.420
2.603,-0.053,0.421
2.604,-0.049,0.421
2.605,-0.044,0.421
2.606,-0.040,0.421
2.440,-0.033,0.394
2.433,-0.028,0.393
2.434,-0.024,0.393
2.442,-0.020,0.395
2.610,-0.016,0.422
2.610,-0.012,0.422
2.611,-0.007,0.422
2.612,-0.002,0.422
2.613,0.002,0.422
2.614,0.007,0.422
2.615,0.012,0.422
2.615,0.016,0.423
2.616,0.021,0.423
2.617,0.026,0.423
2.618,0.030,0.423
2.619,0.035,0.423
2.619,0.040,0.423
2.620,0.044,0.423
2.621,0.049,0.424
2.622,0.054,0.424
2.623,0.059,0.424
2.624,0.063,0.424
2.624,0.068,0.424
2.625,0.073,0.424
2.626,0.077,0.424
2.627,0.082,0.425
2.628,0.087,0.425
2.629,0.092,0.425
2.629,0.096,0.425
2.630,0.101,0.425
2.631,0.106,0.425
2.632,0.111,0.426
2.633,0.115,0.426
2.634,0.120,0.426
2.634,0.125,0.426
2.635,0.130,0.426
2.636,0.134,0.426
2.637,0.139,0.427
2.638,0.144,0.427
2.639,0.149,0.427
2.640,0.153,0.427
2.640,0.158,0.427
2.641,0.163,0.427
2.642,0.168,0.428
2.643,0.172,0.428
2.644,0.177,0.428
2.645,0.182,0.428
2.645,0.187,0.428
2.646,0.192,0.429
2.484,0.184,0.402
2.478,0.188,0.401
2.479,0.193,0.402
2.651,0.211,0.430
2.657,0.216,0.431
2.665,0.222,0.432
2.672,0.227,0.433
2.680,0.233,0.435
2.688,0.238,0.436
2.696,0.244,0.437
2.704,0.249,0.439
2.712,0.255,0.440
2.720,0.261,0.441
2.728,0.266,0.443
2.737,0.272,0.444
2.745,0.278,0.446
2.753,0.284,0.447
2.761,0.289,0.449
2.770,0.295,0.450
2.778,0.301,0.451
2.787,0.307,0.453
2.795,0.313,0.454
2.804,0.319,0.456
2.813,0.325,0.457
2.821,0.331,0.459
2.830,0.338,0.460
2.839,0.344,0.462
2.848,0.350,0.464
2.857,0.356,0.465
2.866,0.363,0.467
2.875,0.369,0.468
2.884,0.375,0.470
2.893,0.382,0.471
2.903,0.388,0.473
2.965,0.467,0.485
2.964,0.472,0.485
2.967,0.478,0.485
2.799,-0.477,0.467
2.797,-0.471,0.466
2.800,-0.467,0.466
3.021,-0.487,0.503
3.020,-0.481,0.503
3.023,-0.476,0.503
3.017,-0.404,0.500
2.893,-0.382,0.480
2.782,-0.362,0.461
2.773,-0.356,0.459
2.769,-0.350,0.459
2.765,-0.345,0.458
2.761,-0.339,0.457
2.758,-0.334,0.457
2.754,-0.329,0.456
2.750,-0.323,0.455
2.746,-0.318,0.454
2.742,-0.312,0.454
2.739,-0.307,0.453
2.735,-0.302,0.452
2.731,-0.296,0.451
2.727,-0.291,0.451
2.724,-0.286,0.450
2.720,-0.280,0.449
2.716,-0.275,0.449
2.713,-0.270,0.448
2.709,-0.264,0.447
2.705,-0.259,0.447
2.702,-0.254,0.446
2.698,-0.249,0.445
2.694,-0.244,0.445
2.691,-0.238,0.444
2.687,-0.233,0.443
2.683,-0.228,0.443
2.680,-0.223,0.442
2.676,-0.218,0.441
2.673,-0.213,0.441
2.669,-0.208,0.440
2.666,-0.203,0.439
2.662,-0.198,0.439
2.659,-0.193,0.438
2.655,-0.188,0.437
2.652,-0.183,0.437
2.648,-0.178,0.436
2.645,-0.173,0.436
2.641,-0.168,0.435
2.638,-0.163,0.434
2.634,-0.158,0.434
2.631,-0.153,0.433
2.627,-0.148,0.432
2.624,-0.143,0.432
2.620,-0.138,0.431
2.617,-0.133,0.431
2.614,-0.128,0.430
2.610,-0.124,0.429
2.607,-0.119,0.429
2.603,-0.114,0.428
2.600,-0.109,0.428
2.597,-0.104,0.427
2.596,-0.100,0.427
2.596,-0.095,0.427
2.597,-0.090,0.427
2.597,-0.086,0.427
2.598,-0.081,0.427
2.599,-0.077,0.427
2.600,-0.072,0.427
2.601,-0.067,0.428
2.601,-0.063,0.428
2.602,-0.058,0.428
2.603,-0.053,0.428
2.604,-0.049,0.428
2.605,-0.044,0.428
2.606,-0.040,0.428
2.445,-0.033,0.402
2.439,-0.028,0.401
2.440,-0.024,0.401
2.609,-0.021,0.429
2.610,-0.016,0.429
2.610,-0.012,0.429
2.611,-0.007,0.429
2.612,-0.002,0.429
2.613,0.002,0.429
2.614,0.007,0.430
2.615,0.012,0.430
2.615,0.016,0.430
2.616,0.021,0.430
2.617,0.026,0.430
2.618,0.030,0.430
2.619,0.035,0.430
2.619,0.040,0.431
2.620,0.044,0.431
2.621,0.049,0.431
2.622,0.054,0.431
2.623,0.059,0.431
2.624,0.063,0.431
2.624,0.068,0.431
2.625,0.073,0.432
2.626,0.077,0.432
2.627,0.082,0.432
2.628,0.087,0.432
2.629,0.092,0.432
2.629,0.096,0.432
2.630,0.101,0.433
2.631,0.106,0.433
2.632,0.111,0.433
2.633,0.115,0.433
2.634,0.120,0.433
2.634,0.125,0.433
2.635,0.130,0.434
2.636,0.134,0.434
2.637,0.139,0.434
2.638,0.144,0.434
2.639,0.149,0.434
2.640,0.153,0.435
2.640,0.158,0.435
2.641,0.163,0.435
2.642,0.168,0.435
2.643,0.172,0.435
2.644,0.177,0.435
2.645,0.182,0.436
2.645,0.187,0.436
2.646,0.192,0.436
2.488,0.185,0.410
2.484,0.189,0.410
2.485,0.193,0.410
2.651,0.211,0.437
2.657,0.216,0.438
2.665,0.222,0.439
2.672,0.227,0.441
2.680,0.233,0.442
2.688,0.238,0.444
2.696,0.244,0.445
2.704,0.249,0.446
2.712,0.255,0.448
2.720,0.261,0.449
2.728,0.266,0.451
2.737,0.272,0.452
2.745,0.278,0.453
2.753,0.284,0.455
2.761,0.289,0.456
2.770,0.295,0.458
2.778,0.301,0.459
2.787,0.307,0.461
2.795,0.313,0.462
2.804,0.319,0.464
2.813,0.325,0.465
2.821,0.331,0.467
2.830,0.338,0.468
2.839,0.344,0.470
2.848,0.350,0.472
2.857,0.356,0.473
2.866,0.363,0.475
2.875,0.369,0.476
2.884,0.375,0.478
2.893,0.382,0.480
2.903,0.388,0.481
2.971,0.457,0.494
2.964,0.461,0.493
2.962,0.467,0.493
2.966,0.473,0.494
2.800,-0.472,0.475
2.799,-0.466,0.474
2.800,-0.462,0.474
2.805,-0.457,0.475
3.023,-0.482,0.512
3.021,-0.476,0.511
3.023,-0.471,0.511
3.017,-0.404,0.509
2.893,-0.382,0.488
2.782,-0.362,0.469
2.773,-0.356,0.467
2.769,-0.350,0.467
2.765,-0.345,0.466
2.761,-0.339,0.465
2.758,-0.334,0.464
2.754,-0.329,0.464
2.750,-0.323,0.463
2.746,-0.318,0.462
2.742,-0.312,0.461
2.739,-0.307,0.461
2.735,-0.302,0.460
2.731,-0.296,0.459
2.727,-0.291,0.459
2.724,-0.286,0.458
2.720,-0.280,0.457
2.716,-0.275,0.456
2.713,-0.270,0.456
2.709,-0.264,0.455
2.705,-0.259,0.454
2.702,-0.254,0.454
2.698,-0.249,0.453
2.694,-0.244,0.452
2.691,-0.238,0.452
2.687,-0.233,0.451
2.683,-0.228,0.450
2.680,-0.223,0.450
2.676,-0.218,0.449
2.673,-0.213,0.448
2.669,-0.208,0.448
2.666,-0.203,0.447
2.662,-0.198,0.446
2.659,-0.193,0.446
2.655,-0.188,0.445
2.652,-0.183,0.444
2.648,-0.178,0.444
2.645,-0.173,0.443
2.641,-0.168,0.442
2.638,-0.163,0.442
2.634,-0.158,0.441
2.631,-0.153,0.441
2.627,-0.148,0.440
2.624,-0.143,0.439
2.620,-0.138,0.439
2.617,-0.133,0.438
2.614,-0.128,0.437
2.610,-0.124,0.437
2.607,-0.119,0.436
2.603,-0.114,0.436
2.600,-0.109,0.435
2.597,-0.104,0.435
2.596,-0.100,0.434
2.596,-0.095,0.434
2.597,-0.090,0.434
2.597,-0.086,0.434
2.598,-0.081,0.435
2.599,-0.077,0.435
2.600,-0.072,0.435
2.601,-0.067,0.435
2.601,-0.063,0.435
2.602,-0.058,0.435
2.603,-0.053,0.435
2.604,-0.049,0.435
2.605,-0.044,0.435
2.606,-0.040,0.436
2.449,-0.033,0.409
2.446,-0.028,0.409
2.446,-0.024,0.409
2.609,-0.021,0.436
2.610,-0.016,0.436
2.610,-0.012,0.436
2.611,-0.007,0.437
2.612,-0.002,0.437
2.613,0.002,0.437
2.614,0.007,0.437
2.615,0.012,0.437
2.615,0.016,0.437
2.616,0.021,0.437
2.617,0.026,0.437
2.618,0.030,0.438
2.619,0.035,0.438
2.619,0.040,0.438
2.620,0.044,0.438
2.621,0.049,0.438
2.622,0.054,0.438
2.623,0.059,0.439
2.624,0.063,0.439
2.624,0.068,0.439
2.625,0.073,0.439
2.626,0.077,0.439
2.627,0.082,0.439
2.628,0.087,0.440
2.629,0.092,0.440
2.629,0.096,0.440
2.630,0.101,0.440
2.631,0.106,0.440
2.632,0.111,0.440
2.633,0.115,0.441
2.634,0.120,0.441
2.634,0.125,0.441
2.635,0.130,0.441
2.636,0.134,0.441
2.637,0.139,0.441
2.638,0.144,0.442
2.639,0.149,0.442
2.640,0.153,0.442
2.640,0.158,0.442
2.641,0.163,0.442
2.642,0.168,0.443
2.643,0.172,0.443
2.644,0.177,0.443
2.645,0.182,0.443
2.645,0.187,0.443
2.646,0.192,0.444
2.492,0.185,0.418
2.491,0.189,0.418
2.499,0.195,0.419
2.651,0.211,0.445
2.657,0.216,0.446
2.665,0.222,0.447
2.672,0.227,0.448
2.680,0.233,0.450
2.688,0.238,0.451
2.696,0.244,0.453
2.704,0.249,0.454
2.712,0.255,0.455
2.720,0.261,0.457
2.728,0.266,0.458
2.737,0.272,0.460
2.745,0.278,0.461
2.753,0.284,0.463
2.761,0.289,0.464
2.770,0.295,0.466
2.778,0.301,0.467
2.787,0.307,0.469
2.795,0.313,0.470
2.804,0.319,0.472
2.813,0.325,0.473
2.821,0.331,0.475
2.830,0.338,0.476
2.839,0.344,0.478
2.848,0.350,0.480
2.857,0.356,0.481
2.866,0.363,0.483
2.875,0.369,0.485
2.884,0.375,0.486
2.893,0.382,0.488
2.903,0.388,0.490
2.968,0.451,0.502
2.962,0.456,0.501
2.961,0.461,0.501
2.966,0.467,0.502
2.800,-0.462,0.482
2.800,-0.456,0.482
2.803,-0.452,0.483
3.023,-0.471,0.520
3.023,-0.465,0.520
3.027,-0.460,0.520
3.017,-0.404,0.517
2.893,-0.382,0.496
2.782,-0.362,0.477
2.773,-0.356,0.475
2.769,-0.350,0.474
2.765,-0.345,0.474
2.761,-0.339,0.473
2.758,-0.334,0.472
2.754,-0.329,0.471
2.750,-0.323,0.471
2.746,-0.318,0.470
2.742,-0.312,0.469
2.739,-0.307,0.468
2.735,-0.302,0.468
2.731,-0.296,0.467
2.727,-0.291,0.466
2.724,-0.286,0.466
2.720,-0.280,0.465
2.716,-0.275,0.464
2.713,-0.270,0.463
2.709,-0.264,0.463
2.705,-0.259,0.462
2.702,-0.254,0.461
2.698,-0.249,0.461
2.694,-0.244,0.460
2.691,-0.238,0.459
2.687,-0.233,0.458
2.683,-0.228,0.458
2.680,-0.223,0.457
2.676,-0.218,0.456
2.673,-0.213,0.456
2.669,-0.208,0.455
2.666,-0.203,0.454
2.662,-0.198,0.454
2.659,-0.193,0.453
2.655,-0.188,0.452
2.652,-0.183,0.452
2.648,-0.178,0.451
2.645,-0.173,0.450
2.641,-0.168,0.450
2.638,-0.163,0.449
2.634,-0.158,0.449
2.631,-0.153,0.448
2.627,-0.148,0.447
2.624,-0.143,0.447
2.620,-0.138,0.446
2.617,-0.133,0.445
2.614,-0.128,0.445
2.610,-0.124,0.444
2.607,-0.119,0.444
2.603,-0.114,0.443
2.600,-0.109,0.442
2.597,-0.104,0.442
2.596,-0.100,0.442
2.596,-0.095,0.442
2.597,-0.090,0.442
2.597,-0.086,0.442
2.598,-0.081,0.442
2.599,-0.077,0.442
2.600,-0.072,0.442
2.601,-0.067,0.442
2.601,-0.063,0.442
2.602,-0.058,0.442
2.603,-0.053,0.443
2.604,-0.049,0.443
2.605,-0.044,0.443
2.606,-0.040,0.443
2.454,-0.033,0.417
2.452,-0.028,0.417
2.455,-0.024,0.417
2.609,-0.021,0.443
2.610,-0.016,0.444
2.610,-0.012,0.444
2.611,-0.007,0.444
2.612,-0.002,0.444
2.613,0.002,0.444
2.614,0.007,0.444
2.615,0.012,0.444
2.615,0.016,0.445
2.616,0.021,0.445
2.617,0.026,0.445
2.618,0.030,0.445
2.619,0.035,0.445
2.619,0.040,0.445
2.620,0.044,0.445
2.621,0.049,0.446
2.622,0.054,0.446
2.623,0.059,0.446
2.624,0.063,0.446
2.624,0.068,0.446
2.625,0.073,0.446
2.626,0.077,0.447
2.627,0.082,0.447
2.628,0.087,0.447
2.629,0.092,0.447
2.629,0.096,0.447
2.630,0.101,0.447
2.631,0.106,0.448
2.632,0.111,0.448
2.633,0.115,0.448
2.634,0.120,0.448
2.634,0.125,0.448
2.635,0.130,0.448
2.636,0.134,0.449
2.637,0.139,0.449
2.638,0.144,0.449
2.639,0.149,0.449
2.640,0.153,0.449
2.640,0.158,0.450
2.641,0.163,0.450
2.642,0.168,0.450
2.643,0.172,0.450
2.644,0.177,0.450
2.645,0.182,0.451
2.645,0.187,0.451
2.503,0.181,0.427
2.497,0.185,0.426
2.498,0.190,0.426
2.649,0.206,0.452
2.651,0.211,0.452
2.657,0.216,0.453
2.665,0.222,0.455
2.672,0.227,0.456
2.680,0.233,0.457
2.688,0.238,0.459
2.696,0.244,0.460
2.704,0.249,0.462
2.712,0.255,0.463
2.720,0.261,0.465
2.728,0.266,0.466
2.737,0.272,0.467
2.745,0.278,0.469
2.753,0.284,0.470
2.761,0.289,0.472
2.770,0.295,0.473
2.778,0.301,0.475
2.787,0.307,0.477
2.795,0.313,0.478
2.804,0.319,0.480
2.813,0.325,0.481
2.821,0.331,0.483
2.830,0.338,0.484
2.839,0.344,0.486
2.848,0.350,0.488
2.857,0.356,0.489
2.866,0.363,0.491
2.875,0.369,0.493
2.884,0.375,0.494
2.893,0.382,0.496
2.903,0.388,0.498
2.965,0.445,0.510
2.961,0.450,0.509
2.961,0.456,0.509
2.802,-0.457,0.490
2.801,-0.451,0.490
2.804,-0.447,0.491
3.025,-0.465,0.529
3.024,-0.460,0.529
3.027,-0.455,0.529
3.017,-0.404,0.526
2.893,-0.382,0.504
2.782,-0.362,0.485
2.773,-0.356,0.483
2.769,-0.350,0.482
2.765,-0.345,0.482
2.761,-0.339,0.481
2.758,-0.334,0.480
2.754,-0.329,0.479
2.750,-0.323,0.478
2.746,-0.318,0.478
2.742,-0.312,0.477
2.739,-0.307,0.476
2.735,-0.302,0.475
2.731,-0.296,0.475
2.727,-0.291,0.474
2.724,-0.286,0.473
2.720,-0.280,0.472
2.716,-0.275,0.472
2.713,-0.270,0.471
2.709,-0.264,0.470
2.705,-0.259,0.470
2.702,-0.254,0.469
2.698,-0.249,0.468
2.694,-0.244,0.467
2.691,-0.238,0.467
2.687,-0.233,0.466
2.683,-0.228,0.465
2.680,-0.223,0.465
2.676,-0.218,0.464
2.673,-0.213,0.463
2.669,-0.208,0.463
2.666,-0.203,0.462
2.662,-0.198,0.461
2.659,-0.193,0.461
2.655,-0.188,0.460
2.652,-0.183,0.459
2.648,-0.178,0.459
2.645,-0.173,0.458
2.641,-0.168,0.457
2.638,-0.163,0.457
2.634,-0.158,0.456
2.631,-0.153,0.455
2.627,-0.148,0.455
2.624,-0.143,0.454
2.620,-0.138,0.453
2.617,-0.133,0.453
2.614,-0.128,0.452
2.610,-0.124,0.452
2.607,-0.119,0.451
2.603,-0.114,0.450
2.600,-0.109,0.450
2.597,-0.104,0.449
2.596,-0.100,0.449
2.596,-0.095,0.449
2.597,-0.090,0.449
2.597,-0.086,0.449
2.598,-0.081,0.449
2.599,-0.077,0.449
2.600,-0.072,0.449
2.601,-0.067,0.450
2.601,-0.063,0.450
2.602,-0.058,0.450
2.603,-0.053,0.450
2.604,-0.049,0.450
2.605,-0.044,0.450
2.606,-0.040,0.450
2.458,-0.033,0.425
2.458,-0.029,0.425
2.466,-0.024,0.426
2.609,-0.021,0.451
2.610,-0.016,0.451
2.610,-0.012,0.451
2.611,-0.007,0.451
2.612,-0.002,0.451
2.613,0.002,0.452
2.614,0.007,0.452
2.615,0.012,0.452
2.615,0.016,0.452
2.616,0.021,0.452
2.617,0.026,0.452
2.618,0.030,0.452
2.619,0.035,0.453
2.619,0.040,0.453
2.620,0.044,0.453
2.621,0.049,0.453
2.622,0.054,0.453
2.623,0.059,0.453
2.624,0.063,0.453
2.624,0.068,0.454
2.625,0.073,0.454
2.626,0.077,0.454
2.627,0.082,0.454
2.628,0.087,0.454
2.629,0.092,0.455
2.629,0.096,0.455
2.630,0.101,0.455
2.631,0.106,0.455
2.632,0.111,0.455
2.633,0.115,0.455
2.634,0.120,0.456
2.634,0.125,0.456
2.635,0.130,0.456
2.636,0.134,0.456
2.637,0.139,0.456
2.638,0.144,0.456
2.639,0.149,0.457
2.640,0.153,0.457
2.640,0.158,0.457
2.641,0.163,0.457
2.642,0.168,0.457
2.643,0.172,0.458
2.644,0.177,0.458
2.645,0.182,0.458
2.645,0.187,0.458
2.507,0.182,0.434
2.503,0.186,0.434
2.504,0.190,0.434
2.649,0.206,0.459
2.651,0.211,0.460
2.657,0.216,0.461
2.665,0.222,0.462
2.672,0.227,0.463
2.680,0.233,0.465
2.688,0.238,0.466
2.696,0.244,0.468
2.704,0.249,0.469
2.712,0.255,0.471
2.720,0.261,0.472
2.728,0.266,0.474
2.737,0.272,0.475
2.745,0.278,0.477
2.753,0.284,0.478
2.761,0.289,0.480
2.770,0.295,0.481
2.778,0.301,0.483
2.787,0.307,0.484
2.795,0.313,0.486
2.804,0.319,0.488
2.813,0.325,0.489
2.821,0.331,0.491
2.830,0.338,0.493
2.839,0.344,0.494
2.848,0.350,0.496
2.857,0.356,0.497
2.866,0.363,0.499
2.875,0.369,0.501
2.884,0.375,0.503
2.893,0.382,0.504
2.903,0.388,0.506
2.963,0.440,0.518
2.960,0.445,0.517
2.960,0.450,0.517
2.803,-0.452,0.499
2.802,-0.446,0.498
2.804,-0.442,0.499
3.026,-0.460,0.538
3.024,-0.454,0.537
3.027,-0.449,0.537
3.017,-0.404,0.535
2.893,-0.382,0.512
2.782,-0.362,0.493
2.773,-0.356,0.491
2.769,-0.350,0.490
2.765,-0.345,0.489
2.761,-0.339,0.489
2.758,-0.334,0.488
2.754,-0.329,0.487
2.750,-0.323,0.486
2.746,-0.318,0.485
2.742,-0.312,0.485
2.739,-0.307,0.484
2.735,-0.302,0.483
2.731,-0.296,0.482
2.727,-0.291,0.482
2.724,-0.286,0.481
2.720,-0.280,0.480
2.716,-0.275,0.479
2.713,-0.270,0.479
2.709,-0.264,0.478
2.705,-0.259,0.477
2.702,-0.254,0.477
2.698,-0.249,0.476
2.694,-0.244,0.475
2.691,-0.238,0.474
2.687,-0.233,0.474
2.683,-0.228,0.473
2.680,-0.223,0.472
2.676,-0.218,0.472
2.673,-0.213,0.471
2.669,-0.208,0.470
2.666,-0.203,0.469
2.662,-0.198,0.469
2.659,-0.193,0.468
2.655,-0.188,0.467
2.652,-0.183,0.467
2.648,-0.178,0.466
2.645,-0.173,0.465
2.641,-0.168,0.465
2.638,-0.163,0.464
2.634,-0.158,0.463
2.631,-0.153,0.463
2.627,-0.148,0.462
2.624,-0.143,0.461
2.620,-0.138,0.461
2.617,-0.133,0.460
2.614,-0.128,0.460
2.610,-0.124,0.459
2.607,-0.119,0.458
2.603,-0.114,0.458
2.600,-0.109,0.457
2.597,-0.104,0.456
2.596,-0.100,0.456
2.596,-0.095,0.456
2.597,-0.090,0.456
2.597,-0.086,0.456
2.598,-0.081,0.457
2.599,-0.077,0.457
2.600,-0.072,0.457
2.601,-0.067,0.457
2.601,-0.063,0.457
2.602,-0.058,0.457
2.603,-0.053,0.457
2.604,-0.049,0.457
2.605,-0.044,0.458
2.470,-0.037,0.434
2.464,-0.033,0.433
2.465,-0.029,0.433
2.608,-0.026,0.458
2.609,-0.021,0.458
2.610,-0.016,0.458
2.610,-0.012,0.458
2.611,-0.007,0.459
2.612,-0.002,0.459
2.613,0.002,0.459
2.614,0.007,0.459
2.615,0.012,0.459
2.615,0.016,0.459
2.616,0.021,0.459
2.617,0.026,0.460
2.618,0.030,0.460
2.619,0.035,0.460
2.619,0.040,0.460
2.620,0.044,0.460
2.621,0.049,0.460
2.622,0.054,0.461
2.623,0.059,0.461
2.624,0.063,0.461
2.624,0.068,0.461
2.625,0.073,0.461
2.626,0.077,0.461
2.627,0.082,0.462
2.628,0.087,0.462
2.629,0.092,0.462
2.629,0.096,0.462
2.630,0.101,0.462
2.631,0.106,0.462
2.632,0.111,0.463
2.633,0.115,0.463
2.634,0.120,0.463
2.634,0.125,0.463
2.635,0.130,0.463
2.636,0.134,0.464
2.637,0.139,0.464
2.638,0.144,0.464
2.639,0.149,0.464
2.640,0.153,0.464
2.640,0.158,0.465
2.641,0.163,0.465
2.642,0.168,0.465
2.643,0.172,0.465
2.644,0.177,0.465
2.645,0.182,0.466
2.518,0.178,0.443
2.511,0.182,0.442
2.510,0.186,0.442
2.648,0.201,0.466
2.649,0.206,0.467
2.651,0.211,0.467
2.657,0.216,0.468
2.665,0.222,0.470
2.672,0.227,0.471
2.680,0.233,0.472
2.688,0.238,0.474
2.696,0.244,0.475
2.704,0.249,0.477
2.712,0.255,0.478
2.720,0.261,0.480
2.728,0.266,0.481
2.737,0.272,0.483
2.745,0.278,0.485
2.753,0.284,0.486
2.761,0.289,0.488
2.770,0.295,0.489
2.778,0.301,0.491
2.787,0.307,0.492
2.795,0.313,0.494
2.804,0.319,0.496
2.813,0.325,0.497
2.821,0.331,0.499
2.830,0.338,0.501
2.839,0.344,0.502
2.848,0.350,0.504
2.857,0.356,0.506
2.866,0.363,0.507
2.875,0.369,0.509
2.884,0.375,0.511
2.893,0.382,0.513
2.903,0.388,0.514
2.960,0.434,0.525
2.959,0.439,0.525
2.960,0.445,0.526
2.805,-0.447,0.507
2.803,-0.442,0.506
2.804,-0.437,0.506
2.808,-0.432,0.507
3.026,-0.449,0.546
3.028,-0.444,0.546
3.017,-0.404,0.543
2.893,-0.382,0.521
2.782,-0.362,0.501
2.773,-0.356,0.499
2.769,-0.350,0.498
2.765,-0.345,0.497
2.761,-0.339,0.496
2.758,-0.334,0.496
2.754,-0.329,0.495
2.750,-0.323,0.494
2.746,-0.318,0.493
2.742,-0.312,0.493
2.739,-0.307,0.492
2.735,-0.302,0.491
2.731,-0.296,0.490
2.727,-0.291,0.489
2.724,-0.286,0.489
2.720,-0.280,0.488
2.716,-0.275,0.487
2.713,-0.270,0.486
2.709,-0.264,0.486
2.705,-0.259,0.485
2.702,-0.254,0.484
2.698,-0.249,0.483
2.694,-0.244,0.483
2.691,-0.238,0.482
2.687,-0.233,0.481
2.683,-0.228,0.481
2.680,-0.223,0.480
2.676,-0.218,0.479
2.673,-0.213,0.478
2.669,-0.208,0.478
2.666,-0.203,0.477
2.662,-0.198,0.476
2.659,-0.193,0.476
2.655,-0.188,0.475
2.652,-0.183,0.474
2.648,-0.178,0.474
2.645,-0.173,0.473
2.641,-0.168,0.472
2.638,-0.163,0.472
2.634,-0.158,0.471
2.631,-0.153,0.470
2.627,-0.148,0.470
2.624,-0.143,0.469
2.620,-0.138,0.468
2.617,-0.133,0.468
2.614,-0.128,0.467
2.610,-0.124,0.466
2.607,-0.119,0.466
2.603,-0.114,0.465
2.600,-0.109,0.464
2.597,-0.104,0.464
2.596,-0.100,0.464
2.596,-0.095,0.464
2.597,-0.090,0.464
2.597,-0.086,0.464
2.598,-0.081,0.464
2.599,-0.077,0.464
2.600,-0.072,0.464
2.601,-0.067,0.464
2.601,-0.063,0.464
2.602,-0.058,0.464
2.603,-0.053,0.465
2.604,-0.049,0.465
2.605,-0.044,0.465
2.475,-0.038,0.442
2.471,-0.033,0.441
2.472,-0.029,0.441
2.608,-0.026,0.465
2.609,-0.021,0.466
2.610,-0.016,0.466
2.610,-0.012,0.466
2.611,-0.007,0.466
2.612,-0.002,0.466
2.613,0.002,0.466
2.614,0.007,0.466
2.615,0.012,0.467
2.615,0.016,0.467
2.616,0.021,0.467
2.617,0.026,0.467
2.618,0.030,0.467
2.619,0.035,0.467
2.619,0.040,0.467
2.620,0.044,0.468
2.621,0.049,0.468
2.622,0.054,0.468
2.623,0.059,0.468
2.624,0.063,0.468
2.624,0.068,0.468
2.625,0.073,0.469
2.626,0.077,0.469
2.627,0.082,0.469
2.628,0.087,0.469
2.629,0.092,0.469
2.629,0.096,0.470
2.630,0.101,0.470
2.631,0.106,0.470
2.632,0.111,0.470
2.633,0.115,0.470
2.634,0.120,0.470
2.634,0.125,0.471
2.635,0.130,0.471
2.636,0.134,0.471
2.637,0.139,0.471
2.638,0.144,0.471
2.639,0.149,0.472
2.640,0.153,0.472
2.640,0.158,0.472
2.641,0.163,0.472
2.642,0.168,0.472
2.643,0.172,0.473
2.644,0.177,0.473
2.645,0.182,0.473
2.522,0.178,0.451
2.516,0.182,0.450
2.517,0.187,0.450
2.648,0.201,0.474
2.649,0.206,0.474
2.651,0.211,0.475
2.657,0.216,0.476
2.665,0.222,0.477
2.672,0.227,0.479
2.680,0.233,0.480
2.688,0.238,0.482
2.696,0.244,0.483
2.704,0.249,0.485
2.712,0.255,0.486
2.720,0.261,0.488
2.728,0.266,0.489
2.737,0.272,0.491
2.745,0.278,0.492
2.753,0.284,0.494
2.761,0.289,0.495
2.770,0.295,0.497
2.778,0.301,0.499
2.787,0.307,0.500
2.795,0.313,0.502
2.804,0.319,0.504
2.813,0.325,0.505
2.821,0.331,0.507
2.830,0.338,0.509
2.839,0.344,0.510
2.848,0.350,0.512
2.857,0.356,0.514
2.866,0.363,0.515
2.875,0.369,0.517
2.884,0.375,0.519
2.893,0.382,0.521
2.903,0.388,0.523
2.959,0.428,0.533
2.957,0.433,0.533
2.959,0.439,0.534
2.805,-0.437,0.515
2.805,-0.432,0.514
2.808,-0.427,0.515
3.028,-0.444,0.555
3.028,-0.438,0.555
3.031,-0.433,0.555
3.017,-0.404,0.552
2.893,-0.382,0.529
2.782,-0.362,0.509
2.773,-0.356,0.507
2.769,-0.350,0.506
2.765,-0.345,0.505
2.761,-0.339,0.504
2.758,-0.334,0.504
2.754,-0.329,0.503
2.750,-0.323,0.502
2.746,-0.318,0.501
2.742,-0.312,0.500
2.739,-0.307,0.500
2.735,-0.302,0.499
2.731,-0.296,0.498
2.727,-0.291,0.497
2.724,-0.286,0.496
2.720,-0.280,0.496
2.716,-0.275,0.495
2.713,-0.270,0.494
2.709,-0.264,0.493
2.705,-0.259,0.493
2.702,-0.254,0.492
2.698,-0.249,0.491
2.694,-0.244,0.490
2.691,-0.238,0.490
2.687,-0.233,0.489
2.683,-0.228,0.488
2.680,-0.223,0.487
2.676,-0.218,0.487
2.673,-0.213,0.486
2.669,-0.208,0.485
2.666,-0.203,0.485
2.662,-0.198,0.484
2.659,-0.193,0.483
2.655,-0.188,0.482
2.652,-0.183,0.482
2.648,-0.178,0.481
2.645,-0.173,0.480
2.641,-0.168,0.480
2.638,-0.163,0.479
2.634,-0.158,0.478
2.631,-0.153,0.478
2.627,-0.148,0.477
2.624,-0.143,0.476
2.620,-0.138,0.476
2.617,-0.133,0.475
2.614,-0.128,0.474
2.610,-0.124,0.474
2.607,-0.119,0.473
2.603,-0.114,0.472
2.600,-0.109,0.472
2.597,-0.104,0.471
2.596,-0.100,0.471
2.596,-0.095,0.471
2.597,-0.090,0.471
2.597,-0.086,0.471
2.598,-0.081,0.471
2.599,-0.077,0.471
2.600,-0.072,0.471
2.601,-0.067,0.472
2.601,-0.063,0.472
2.602,-0.058,0.472
2.603,-0.053,0.472
2.604,-0.049,0.472
2.605,-0.044,0.472
2.480,-0.038,0.450
2.477,-0.033,0.449
2.479,-0.029,0.449
2.608,-0.026,0.473
2.609,-0.021,0.473
2.610,-0.016,0.473
2.610,-0.012,0.473
2.611,-0.007,0.473
2.612,-0.002,0.473
2.613,0.002,0.474
2.614,0.007,0.474
2.615,0.012,0.474
2.615,0.016,0.474
2.616,0.021,0.474
2.617,0.026,0.474
2.618,0.030,0.475
2.619,0.035,0.475
2.619,0.040,0.475
2.620,0.044,0.475
2.621,0.049,0.475
2.622,0.054,0.475
2.623,0.059,0.476
2.624,0.063,0.476
2.624,0.068,0.476
2.625,0.073,0.476
2.626,0.077,0.476
2.627,0.082,0.476
2.628,0.087,0.477
2.629,0.092,0.477
2.629,0.096,0.477
2.630,0.101,0.477
2.631,0.106,0.477
2.632,0.111,0.478
2.633,0.115,0.478
2.634,0.120,0.478
2.634,0.125,0.478
2.635,0.130,0.478
2.636,0.134,0.478
2.637,0.139,0.479
2.638,0.144,0.479
2.639,0.149,0.479
2.640,0.153,0.479
2.640,0.158,0.479
2.641,0.163,0.480
2.642,0.168,0.480
2.643,0.172,0.480
2.644,0.177,0.480
2.645,0.182,0.481
2.526,0.178,0.459
2.523,0.183,0.459
2.524,0.187,0.459
2.648,0.201,0.481
2.649,0.206,0.482
2.651,0.211,0.482
2.657,0.216,0.483
2.665,0.222,0.485
2.672,0.227,0.486
2.680,0.233,0.488
2.688,0.238,0.489
2.696,0.244,0.491
2.704,0.249,0.492
2.712,0.255,0.494
2.720,0.261,0.495
2.728,0.266,0.497
2.737,0.272,0.498
2.745,0.278,0.500
2.753,0.284,0.502
2.761,0.289,0.503
2.770,0.295,0.505
2.778,0.301,0.507
2.787,0.307,0.508
2.795,0.313,0.510
2.804,0.319,0.512
2.813,0.325,0.513
2.821,0.331,0.515
2.830,0.338,0.517
2.839,0.344,0.518
2.848,0.350,0.520
2.857,0.356,0.522
2.866,0.363,0.524
2.875,0.369,0.525
2.884,0.375,0.527
2.893,0.382,0.529
2.903,0.388,0.531
2.957,0.423,0.542
2.956,0.428,0.541
2.959,0.434,0.542
2.806,-0.432,0.523
2.805,-0.426,0.522
2.808,-0.422,0.523
3.029,-0.438,0.564
3.028,-0.433,0.563
3.032,-0.428,0.564
3.017,-0.404,0.560
2.893,-0.382,0.537
2.782,-0.362,0.516
2.773,-0.356,0.515
2.769,-0.350,0.514
2.765,-0.345,0.513
2.761,-0.339,0.512
2.758,-0.334,0.511
2.754,-0.329,0.511
2.750,-0.323,0.510
2.746,-0.318,0.509
2.742,-0.312,0.508
2.739,-0.307,0.507
2.735,-0.302,0.507
2.731,-0.296,0.506
2.727,-0.291,0.505
2.724,-0.286,0.504
2.720,-0.280,0.503
2.716,-0.275,0.503
2.713,-0.270,0.502
2.709,-0.264,0.501
2.705,-0.259,0.500
2.702,-0.254,0.500
2.698,-0.249,0.499
2.694,-0.244,0.498
2.691,-0.238,0.497
2.687,-0.233,0.497
2.683,-0.228,0.496
2.680,-0.223,0.495
2.676,-0.218,0.494
2.673,-0.213,0.494
2.669,-0.208,0.493
2.666,-0.203,0.492
2.662,-0.198,0.491
2.659,-0.193,0.491
2.655,-0.188,0.490
2.652,-0.183,0.489
2.648,-0.178,0.489
2.645,-0.173,0.488
2.641,-0.168,0.487
2.638,-0.163,0.487
2.634,-0.158,0.486
2.631,-0.153,0.485
2.627,-0.148,0.484
2.624,-0.143,0.484
2.620,-0.138,0.483
2.617,-0.133,0.482
2.614,-0.128,0.482
2.610,-0.124,0.481
2.607,-0.119,0.480
2.603,-0.114,0.480
2.600,-0.109,0.479
2.597,-0.104,0.479
2.596,-0.100,0.478
2.596,-0.095,0.478
2.597,-0.090,0.478
2.597,-0.086,0.478
2.598,-0.081,0.479
2.599,-0.077,0.479
2.600,-0.072,0.479
2.601,-0.067,0.479
2.601,-0.063,0.479
2.602,-0.058,0.479
2.603,-0.053,0.479
2.604,-0.049,0.479
2.605,-0.044,0.480
2.484,-0.038,0.457
2.484,-0.033,0.457
2.490,-0.029,0.459
2.608,-0.026,0.480
2.609,-0.021,0.480
2.610,-0.016,0.480
2.610,-0.012,0.481
2.611,-0.007,0.481
2.612,-0.002,0.481
2.613,0.002,0.481
2.614,0.007,0.481
2.615,0.012,0.481
2.615,0.016,0.481
2.616,0.021,0.482
2.617,0.026,0.482
2.618,0.030,0.482
2.619,0.035,0.482
2.619,0.040,0.482
2.620,0.044,0.482
2.621,0.049,0.483
2.622,0.054,0.483
2.623,0.059,0.483
2.624,0.063,0.483
2.624,0.068,0.483
2.625,0.073,0.484
2.626,0.077,0.484
2.627,0.082,0.484
2.628,0.087,0.484
2.629,0.092,0.484
2.629,0.096,0.484
2.630,0.101,0.485
2.631,0.106,0.485
2.632,0.111,0.485
2.633,0.115,0.485
2.634,0.120,0.485
2.634,0.125,0.486
2.635,0.130,0.486
2.636,0.134,0.486
2.637,0.139,0.486
2.638,0.144,0.486
2.639,0.149,0.487
2.640,0.153,0.487
2.640,0.158,0.487
2.641,0.163,0.487
2.642,0.168,0.487
2.643,0.172,0.488
2.644,0.177,0.488
2.537,0.175,0.468
2.530,0.179,0.467
2.530,0.183,0.467
2.647,0.197,0.489
2.648,0.201,0.489
2.649,0.206,0.489
2.651,0.211,0.490
2.657,0.216,0.491
2.665,0.222,0.492
2.672,0.227,0.494
2.680,0.233,0.495
2.688,0.238,0.497
2.696,0.244,0.498
2.704,0.249,0.500
2.712,0.255,0.502
2.720,0.261,0.503
2.728,0.266,0.505
2.737,0.272,0.506
2.745,0.278,0.508
2.753,0.284,0.510
2.761,0.289,0.511
2.770,0.295,0.513
2.778,0.301,0.514
2.787,0.307,0.516
2.795,0.313,0.518
2.804,0.319,0.520
2.813,0.325,0.521
2.821,0.331,0.523
2.830,0.338,0.525
2.839,0.344,0.526
2.848,0.350,0.528
2.857,0.356,0.530
2.866,0.363,0.532
2.875,0.369,0.534
2.884,0.375,0.535
2.893,0.382,0.537
2.903,0.388,0.539
2.963,0.413,0.551
2.956,0.417,0.550
2.955,0.422,0.549
2.958,0.428,0.550
2.808,-0.427,0.531
2.806,-0.421,0.530
2.808,-0.417,0.531
3.031,-0.433,0.572
3.029,-0.427,0.572
3.032,-0.422,0.572
3.017,-0.404,0.569
2.893,-0.382,0.545
2.782,-0.362,0.524
2.773,-0.356,0.523
2.769,-0.350,0.522
2.765,-0.345,0.521
2.761,-0.339,0.520
2.758,-0.334,0.519
2.754,-0.329,0.518
2.750,-0.323,0.518
2.746,-0.318,0.517
2.742,-0.312,0.516
2.739,-0.307,0.515
2.735,-0.302,0.514
2.731,-0.296,0.514
2.727,-0.291,0.513
2.724,-0.286,0.512
2.720,-0.280,0.511
2.716,-0.275,0.510
2.713,-0.270,0.510
2.709,-0.264,0.509
2.705,-0.259,0.508
2.702,-0.254,0.507
2.698,-0.249,0.506
2.694,-0.244,0.506
2.691,-0.238,0.505
2.687,-0.233,0.504
2.683,-0.228,0.503
2.680,-0.223,0.503
2.676,-0.218,0.502
2.673,-0.213,0.501
2.669,-0.208,0.500
2.666,-0.203,0.500
2.662,-0.198,0.499
2.659,-0.193,0.498
2.655,-0.188,0.498
2.652,-0.183,0.497
2.648,-0.178,0.496
2.645,-0.173,0.495
2.641,-0.168,0.495
2.638,-0.163,0.494
2.634,-0.158,0.493
2.631,-0.153,0.493
2.627,-0.148,0.492
2.624,-0.143,0.491
2.620,-0.138,0.491
2.617,-0.133,0.490
2.614,-0.128,0.489
2.610,-0.124,0.488
2.607,-0.119,0.488
2.603,-0.114,0.487
2.600,-0.109,0.486
2.597,-0.104,0.486
2.596,-0.100,0.486
2.596,-0.095,0.486
2.597,-0.090,0.486
2.597,-0.086,0.486
2.598,-0.081,0.486
2.599,-0.077,0.486
2.600,-0.072,0.486
2.601,-0.067,0.486
2.601,-0.063,0.486
2.602,-0.058,0.487
2.603,-0.053,0.487
2.604,-0.049,0.487
2.497,-0.042,0.467
2.490,-0.038,0.465
2.491,-0.033,0.466
2.607,-0.030,0.487
2.608,-0.026,0.488
2.609,-0.021,0.488
2.610,-0.016,0.488
2.610,-0.012,0.488
2.611,-0.007,0.488
2.612,-0.002,0.488
2.613,0.002,0.488
2.614,0.007,0.489
2.615,0.012,0.489
2.615,0.016,0.489
2.616,0.021,0.489
2.617,0.026,0.489
2.618,0.030,0.489
2.619,0.035,0.490
2.619,0.040,0.490
2.620,0.044,0.490
2.621,0.049,0.490
2.622,0.054,0.490
2.623,0.059,0.490
2.624,0.063,0.491
2.624,0.068,0.491
2.625,0.073,0.491
2.626,0.077,0.491
2.627,0.082,0.491
2.628,0.087,0.491
2.629,0.092,0.492
2.629,0.096,0.492
2.630,0.101,0.492
2.631,0.106,0.492
2.632,0.111,0.492
2.633,0.115,0.493
2.634,0.120,0.493
2.634,0.125,0.493
2.635,0.130,0.493
2.636,0.134,0.493
2.637,0.139,0.494
2.638,0.144,0.494
2.639,0.149,0.494
2.640,0.153,0.494
2.640,0.158,0.494
2.641,0.163,0.495
2.642,0.168,0.495
2.643,0.172,0.495
2.644,0.177,0.495
2.541,0.175,0.476
2.536,0.179,0.475
2.537,0.184,0.475
2.647,0.197,0.496
2.648,0.201,0.496
2.649,0.206,0.497
2.651,0.211,0.497
2.657,0.216,0.498
2.665,0.222,0.500
2.672,0.227,0.501
2.680,0.233,0.503
2.688,0.238,0.504
2.696,0.244,0.506
2.704,0.249,0.508
2.712,0.255,0.509
2.720,0.261,0.511
2.728,0.266,0.512
2.737,0.272,0.514
2.745,0.278,0.516
2.753,0.284,0.517
2.761,0.289,0.519
2.770,0.295,0.521
2.778,0.301,0.522
2.787,0.307,0.524
2.795,0.313,0.526
2.804,0.319,0.528
2.813,0.325,0.529
2.821,0.331,0.531
2.830,0.338,0.533
2.839,0.344,0.535
2.848,0.350,0.536
2.857,0.356,0.538
2.866,0.363,0.540
2.875,0.369,0.542
2.884,0.375,0.544
2.893,0.382,0.546
2.903,0.388,0.547
2.960,0.407,0.559
2.955,0.411,0.558
2.953,0.417,0.558
2.958,0.423,0.559
2.809,-0.422,0.539
2.808,-0.417,0.539
2.809,-0.412,0.539
2.812,-0.407,0.539
3.031,-0.422,0.581
3.032,-0.417,0.581
3.040,-0.412,0.582
3.017,-0.404,0.578
2.893,-0.382,0.554
2.782,-0.362,0.532
2.773,-0.356,0.531
2.769,-0.350,0.530
2.765,-0.345,0.529
2.761,-0.339,0.528
2.758,-0.334,0.527
2.754,-0.329,0.526
2.750,-0.323,0.525
2.746,-0.318,0.525
2.742,-0.312,0.524
2.739,-0.307,0.523
2.735,-0.302,0.522
2.731,-0.296,0.521
2.727,-0.291,0.520
2.724,-0.286,0.520
2.720,-0.280,0.519
2.716,-0.275,0.518
2.713,-0.270,0.517
2.709,-0.264,0.516
2.705,-0.259,0.516
2.702,-0.254,0.515
2.698,-0.249,0.514
2.694,-0.244,0.513
2.691,-0.238,0.513
2.687,-0.233,0.512
2.683,-0.228,0.511
2.680,-0.223,0.510
2.676,-0.218,0.510
2.673,-0.213,0.509
2.669,-0.208,0.508
2.666,-0.203,0.507
2.662,-0.198,0.507
2.659,-0.193,0.506
2.655,-0.188,0.505
2.652,-0.183,0.504
2.648,-0.178,0.504
2.645,-0.173,0.503
2.641,-0.168,0.502
2.638,-0.163,0.501
2.634,-0.158,0.501
2.631,-0.153,0.500
2.627,-0.148,0.499
2.624,-0.143,0.499
2.620,-0.138,0.498
2.617,-0.133,0.497
2.614,-0.128,0.497
2.610,-0.124,0.496
2.607,-0.119,0.495
2.603,-0.114,0.495
2.600,-0.109,0.494
2.597,-0.104,0.493
2.596,-0.100,0.493
2.596,-0.095,0.493
2.597,-0.090,0.493
2.597,-0.086,0.493
2.598,-0.081,0.493
2.599,-0.077,0.493
2.600,-0.072,0.494
2.601,-0.067,0.494
2.601,-0.063,0.494
2.602,-0.058,0.494
2.603,-0.053,0.494
2.604,-0.049,0.494
2.501,-0.042,0.475
2.496,-0.038,0.474
2.497,-0.033,0.474
2.607,-0.030,0.495
2.608,-0.026,0.495
2.609,-0.021,0.495
2.610,-0.016,0.495
2.610,-0.012,0.495
2.611,-0.007,0.496
2.612,-0.002,0.496
2.613,0.002,0.496
2.614,0.007,0.496
2.615,0.012,0.496
2.615,0.016,0.496
2.616,0.021,0.496
2.617,0.026,0.497
2.618,0.030,0.497
2.619,0.035,0.497
2.619,0.040,0.497
2.620,0.044,0.497
2.621,0.049,0.497
2.622,0.054,0.498
2.623,0.059,0.498
2.624,0.063,0.498
2.624,0.068,0.498
2.625,0.073,0.498
2.626,0.077,0.499
2.627,0.082,0.499
2.628,0.087,0.499
2.629,0.092,0.499
2.629,0.096,0.499
2.630,0.101,0.500
2.631,0.106,0.500
2.632,0.111,0.500
2.633,0.115,0.500
2.634,0.120,0.500
2.634,0.125,0.500
2.635,0.130,0.501
2.636,0.134,0.501
2.637,0.139,0.501
2.638,0.144,0.501
2.639,0.149,0.502
2.640,0.153,0.502
2.640,0.158,0.502
2.641,0.163,0.502
2.642,0.168,0.502
2.643,0.172,0.503
2.644,0.177,0.503
2.545,0.175,0.484
2.543,0.180,0.484
2.547,0.184,0.485
2.647,0.197,0.504
2.648,0.201,0.504
2.649,0.206,0.504
2.651,0.211,0.505
2.657,0.216,0.506
2.665,0.222,0.507
2.672,0.227,0.509
2.680,0.233,0.511
2.688,0.238,0.512
2.696,0.244,0.514
2.704,0.249,0.515
2.712,0.255,0.517
2.720,0.261,0.519
2.728,0.266,0.520
2.737,0.272,0.522
2.745,0.278,0.524
2.753,0.284,0.525
2.761,0.289,0.527
2.770,0.295,0.529
2.778,0.301,0.530
2.787,0.307,0.532
2.795,0.313,0.534
2.804,0.319,0.536
2.813,0.325,0.537
2.821,0.331,0.539
2.830,0.338,0.541
2.839,0.344,0.543
2.848,0.350,0.545
2.857,0.356,0.546
2.866,0.363,0.548
2.875,0.369,0.550
2.884,0.375,0.552
