2.292,0.092,0.192
2.286,0.096,0.192
2.286,0.100,0.192
2.293,0.104,0.192
2.613,0.124,0.219
2.613,0.128,0.219
2.613,0.133,0.219
2.613,0.138,0.219
2.613,0.142,0.219
2.613,0.147,0.219
2.618,0.152,0.219
2.623,0.157,0.220
2.628,0.162,0.220
2.633,0.167,0.221
2.638,0.172,0.221
2.643,0.177,0.222
2.648,0.182,0.222
2.653,0.187,0.223
2.658,0.193,0.223
2.663,0.198,0.224
2.669,0.203,0.224
2.674,0.208,0.224
2.679,0.213,0.225
2.684,0.219,0.225
2.690,0.224,0.226
2.695,0.229,0.226
2.700,0.234,0.227
2.705,0.240,0.227
2.711,0.245,0.228
2.716,0.250,0.228
2.722,0.256,0.229
2.727,0.261,0.229
2.732,0.267,0.230
2.738,0.272,0.230
2.743,0.278,0.231
2.749,0.283,0.231
2.754,0.289,0.232
2.760,0.294,0.232
2.766,0.300,0.233
2.771,0.306,0.233
2.777,0.311,0.234
2.783,0.317,0.234
2.788,0.323,0.235
2.794,0.328,0.235
2.800,0.334,0.236
2.805,0.340,0.237
2.811,0.346,0.237
2.817,0.351,0.238
2.823,0.357,0.238
2.829,0.363,0.239
2.835,0.369,0.239
3.106,0.627,0.265
3.104,0.632,0.265
3.104,0.638,0.265
2.885,0.641,0.247
2.883,0.646,0.247
2.883,0.652,0.247
2.883,-0.668,0.256
2.884,-0.663,0.256
2.888,-0.658,0.256
3.104,-0.655,0.274
3.104,-0.649,0.274
3.106,-0.644,0.274
2.836,-0.395,0.248
2.830,-0.389,0.247
2.824,-0.383,0.246
2.819,-0.377,0.246
2.813,-0.371,0.245
2.807,-0.365,0.245
2.801,-0.360,0.244
2.795,-0.354,0.244
2.789,-0.348,0.243
2.784,-0.342,0.242
2.778,-0.336,0.242
2.772,-0.331,0.241
2.766,-0.325,0.241
2.761,-0.319,0.240
2.755,-0.314,0.240
2.749,-0.308,0.239
2.744,-0.303,0.239
2.738,-0.297,0.238
2.733,-0.291,0.238
2.727,-0.286,0.237
2.722,-0.280,0.237
2.716,-0.275,0.236
2.711,-0.270,0.236
2.705,-0.264,0.235
2.700,-0.259,0.235
2.695,-0.253,0.234
2.689,-0.248,0.233
2.684,-0.243,0.233
2.679,-0.237,0.232
2.673,-0.232,0.232
2.668,-0.227,0.232
2.663,-0.222,0.231
2.658,-0.216,0.231
2.653,-0.211,0.230
2.647,-0.206,0.230
2.642,-0.201,0.229
2.637,-0.196,0.229
2.632,-0.191,0.228
2.627,-0.186,0.228
2.622,-0.181,0.227
2.617,-0.175,0.227
2.613,-0.171,0.226
2.613,-0.166,0.226
2.613,-0.161,0.226
2.613,-0.157,0.226
2.613,-0.152,0.226
2.300,-0.129,0.199
2.292,-0.125,0.198
2.292,-0.121,0.198
2.297,-0.117,0.199
2.613,-0.128,0.226
2.613,-0.124,0.226
2.613,-0.119,0.226
2.613,-0.114,0.226
2.613,-0.110,0.226
2.613,-0.105,0.226
2.613,-0.100,0.226
2.613,-0.096,0.226
2.613,-0.091,0.226
2.613,-0.086,0.226
2.613,-0.082,0.226
2.613,-0.077,0.226
2.613,-0.072,0.226
2.613,-0.068,0.226
2.613,-0.063,0.226
2.613,-0.058,0.226
2.613,-0.054,0.226
2.613,-0.049,0.226
2.613,-0.044,0.226
2.613,-0.040,0.226
2.613,-0.035,0.226
2.613,-0.030,0.226
2.613,-0.026,0.226
2.613,-0.021,0.226
2.613,-0.016,0.226
2.613,-0.012,0.226
2.613,-0.007,0.226
2.613,-0.002,0.226
2.613,0.002,0.226
2.613,0.007,0.226
2.613,0.012,0.226
2.613,0.016,0.226
2.613,0.021,0.226
2.613,0.026,0.226
2.613,0.030,0.226
2.613,0.035,0.226
2.613,0.040,0.226
2.613,0.044,0.226
2.613,0.049,0.226
2.613,0.054,0.226
2.613,0.058,0.226
2.613,0.063,0.226
2.613,0.068,0.226
2.613,0.072,0.226
2.613,0.077,0.226
2.613,0.082,0.226
2.613,0.086,0.226
2.613,0.091,0.226
2.613,0.096,0.226
2.613,0.100,0.226
2.297,0.092,0.199
2.292,0.096,0.198
2.292,0.100,0.198
2.299,0.105,0.199
2.613,0.124,0.226
2.613,0.128,0.226
2.613,0.133,0.226
2.613,0.138,0.226
2.613,0.142,0.226
2.613,0.147,0.226
2.618,0.152,0.227
2.623,0.157,0.227
2.628,0.162,0.228
2.633,0.167,0.228
2.638,0.172,0.229
2.643,0.177,0.229
2.648,0.182,0.229
2.653,0.187,0.230
2.658,0.193,0.230
2.663,0.198,0.231
2.669,0.203,0.231
2.674,0.208,0.232
2.679,0.213,0.232
2.684,0.219,0.233
2.690,0.224,0.233
2.695,0.229,0.234
2.700,0.234,0.234
2.705,0.240,0.235
2.711,0.245,0.235
2.716,0.250,0.236
2.722,0.256,0.236
2.727,0.261,0.237
2.732,0.267,0.237
2.738,0.272,0.238
2.743,0.278,0.238
2.749,0.283,0.239
2.754,0.289,0.239
2.760,0.294,0.240
2.766,0.300,0.241
2.771,0.306,0.241
2.777,0.311,0.242
2.783,0.317,0.242
2.788,0.323,0.243
2.794,0.328,0.243
2.800,0.334,0.244
2.805,0.340,0.244
2.811,0.346,0.245
2.817,0.351,0.245
2.823,0.357,0.246
2.829,0.363,0.247
2.835,0.369,0.247
3.106,0.621,0.274
3.103,0.626,0.274
3.105,0.632,0.274
2.885,0.636,0.255
2.882,0.641,0.255
2.884,0.646,0.255
2.883,-0.662,0.264
2.883,-0.657,0.264
2.885,-0.652,0.264
3.105,-0.650,0.283
3.103,-0.643,0.283
3.106,-0.638,0.283
2.836,-0.395,0.255
2.830,-0.389,0.255
2.824,-0.383,0.254
2.819,-0.377,0.254
2.813,-0.371,0.253
2.807,-0.365,0.253
2.801,-0.360,0.252
2.795,-0.354,0.251
2.789,-0.348,0.251
2.784,-0.342,0.250
2.778,-0.336,0.250
2.772,-0.331,0.249
2.766,-0.325,0.248
2.761,-0.319,0.248
2.755,-0.314,0.247
2.749,-0.308,0.247
2.744,-0.303,0.246
2.738,-0.297,0.246
2.733,-0.291,0.245
2.727,-0.286,0.245
2.722,-0.280,0.244
2.716,-0.275,0.244
2.711,-0.270,0.243
2.705,-0.264,0.243
2.700,-0.259,0.242
2.695,-0.253,0.241
2.689,-0.248,0.241
2.684,-0.243,0.240
2.679,-0.237,0.240
2.673,-0.232,0.239
2.668,-0.227,0.239
2.663,-0.222,0.238
2.658,-0.216,0.238
2.653,-0.211,0.237
2.647,-0.206,0.237
2.642,-0.201,0.236
2.637,-0.196,0.236
2.632,-0.191,0.235
2.627,-0.186,0.235
2.622,-0.181,0.234
2.617,-0.175,0.234
2.613,-0.171,0.234
2.613,-0.166,0.234
2.613,-0.161,0.234
2.613,-0.157,0.234
2.613,-0.152,0.234
2.613,-0.147,0.234
2.297,-0.125,0.205
2.297,-0.121,0.205
2.302,-0.117,0.206
2.613,-0.128,0.233
2.613,-0.124,0.233
2.613,-0.119,0.233
2.613,-0.114,0.233
2.613,-0.110,0.233
2.613,-0.105,0.233
2.613,-0.100,0.233
2.613,-0.096,0.233
2.613,-0.091,0.233
2.613,-0.086,0.233
2.613,-0.082,0.233
2.613,-0.077,0.233
2.613,-0.072,0.233
2.613,-0.068,0.233
2.613,-0.063,0.233
2.613,-0.058,0.233
2.613,-0.054,0.233
2.613,-0.049,0.233
2.613,-0.044,0.233
2.613,-0.040,0.233
2.613,-0.035,0.233
2.613,-0.030,0.233
2.613,-0.026,0.233
2.613,-0.021,0.233
2.613,-0.016,0.233
2.613,-0.012,0.233
2.613,-0.007,0.233
2.613,-0.002,0.233
2.613,0.002,0.233
2.613,0.007,0.233
2.613,0.012,0.233
2.613,0.016,0.233
2.613,0.021,0.233
2.613,0.026,0.233
2.613,0.030,0.233
2.613,0.035,0.233
2.613,0.040,0.233
2.613,0.044,0.233
2.613,0.049,0.233
2.613,0.054,0.233
2.613,0.058,0.233
2.613,0.063,0.233
2.613,0.068,0.233
2.613,0.072,0.233
2.613,0.077,0.233
2.613,0.082,0.233
2.613,0.086,0.233
2.613,0.091,0.233
2.613,0.096,0.233
2.613,0.100,0.233
2.302,0.093,0.206
2.297,0.096,0.205
2.297,0.101,0.205
2.305,0.105,0.206
2.613,0.124,0.233
2.613,0.128,0.233
2.613,0.133,0.233
2.613,0.138,0.233
2.613,0.142,0.233
2.613,0.147,0.233
2.618,0.152,0.234
2.623,0.157,0.234
2.628,0.162,0.235
2.633,0.167,0.235
2.638,0.172,0.236
2.643,0.177,0.236
2.648,0.182,0.237
2.653,0.187,0.237
2.658,0.193,0.238
2.663,0.198,0.238
2.669,0.203,0.239
2.674,0.208,0.239
2.679,0.213,0.240
2.684,0.219,0.240
2.690,0.224,0.241
2.695,0.229,0.241
2.700,0.234,0.242
2.705,0.240,0.242
2.711,0.245,0.243
2.716,0.250,0.243
2.722,0.256,0.244
2.727,0.261,0.244
2.732,0.267,0.245
2.738,0.272,0.245
2.743,0.278,0.246
2.749,0.283,0.247
2.754,0.289,0.247
2.760,0.294,0.248
2.766,0.300,0.248
2.771,0.306,0.249
2.777,0.311,0.249
2.783,0.317,0.250
2.788,0.323,0.250
2.794,0.328,0.251
2.800,0.334,0.252
2.805,0.340,0.252
2.811,0.346,0.253
2.817,0.351,0.253
2.823,0.357,0.254
2.829,0.363,0.254
2.835,0.369,0.255
3.105,0.615,0.282
3.103,0.620,0.282
3.105,0.627,0.283
2.884,0.630,0.263
2.882,0.635,0.263
2.884,0.641,0.264
2.884,-0.657,0.272
2.883,-0.652,0.272
2.885,-0.647,0.272
3.106,-0.644,0.292
3.103,-0.638,0.291
3.105,-0.632,0.291
2.836,-0.395,0.263
2.830,-0.389,0.263
2.824,-0.383,0.262
2.819,-0.377,0.262
2.813,-0.371,0.261
2.807,-0.365,0.260
2.801,-0.360,0.260
2.795,-0.354,0.259
2.789,-0.348,0.259
2.784,-0.342,0.258
2.778,-0.336,0.257
2.772,-0.331,0.257
2.766,-0.325,0.256
2.761,-0.319,0.256
2.755,-0.314,0.255
2.749,-0.308,0.254
2.744,-0.303,0.254
2.738,-0.297,0.253
2.733,-0.291,0.253
2.727,-0.286,0.252
2.722,-0.280,0.252
2.716,-0.275,0.251
2.711,-0.270,0.251
2.705,-0.264,0.250
2.700,-0.259,0.249
2.695,-0.253,0.249
2.689,-0.248,0.248
2.684,-0.243,0.248
2.679,-0.237,0.247
2.673,-0.232,0.247
2.668,-0.227,0.246
2.663,-0.222,0.246
2.658,-0.216,0.245
2.653,-0.211,0.245
2.647,-0.206,0.244
2.642,-0.201,0.244
2.637,-0.196,0.243
2.632,-0.191,0.243
2.627,-0.186,0.242
2.622,-0.181,0.242
2.617,-0.175,0.241
2.613,-0.171,0.241
2.613,-0.166,0.241
2.613,-0.161,0.241
2.613,-0.157,0.241
2.613,-0.152,0.241
2.613,-0.147,0.241
2.303,-0.126,0.212
2.303,-0.121,0.212
2.307,-0.117,0.212
2.613,-0.128,0.241
2.613,-0.124,0.241
2.613,-0.119,0.241
2.613,-0.114,0.241
2.613,-0.110,0.241
2.613,-0.105,0.241
2.613,-0.100,0.241
2.613,-0.096,0.241
2.613,-0.091,0.241
2.613,-0.086,0.240
2.613,-0.082,0.240
2.613,-0.077,0.240
2.613,-0.072,0.240
2.613,-0.068,0.240
2.613,-0.063,0.240
2.613,-0.058,0.240
2.613,-0.054,0.240
2.613,-0.049,0.240
2.613,-0.044,0.240
2.613,-0.040,0.240
2.613,-0.035,0.240
2.613,-0.030,0.240
2.613,-0.026,0.240
2.613,-0.021,0.240
2.613,-0.016,0.240
2.613,-0.012,0.240
2.613,-0.007,0.240
2.613,-0.002,0.240
2.613,0.002,0.240
2.613,0.007,0.240
2.613,0.012,0.240
2.613,0.016,0.240
2.613,0.021,0.240
2.613,0.026,0.240
2.613,0.030,0.240
2.613,0.035,0.240
2.613,0.040,0.240
2.613,0.044,0.240
2.613,0.049,0.240
2.613,0.054,0.240
2.613,0.058,0.240
2.613,0.063,0.240
2.613,0.068,0.240
2.613,0.072,0.240
2.613,0.077,0.240
2.613,0.082,0.240
2.613,0.086,0.240
2.613,0.091,0.241
2.613,0.096,0.241
2.613,0.100,0.241
2.307,0.093,0.212
2.303,0.097,0.212
2.303,0.101,0.212
2.613,0.119,0.241
2.613,0.124,0.241
2.613,0.128,0.241
2.613,0.133,0.241
2.613,0.138,0.241
2.613,0.142,0.241
2.613,0.147,0.241
2.618,0.152,0.241
2.623,0.157,0.242
2.628,0.162,0.242
2.633,0.167,0.243
2.638,0.172,0.243
2.643,0.177,0.244
2.648,0.182,0.244
2.653,0.187,0.245
2.658,0.193,0.245
2.663,0.198,0.246
2.669,0.203,0.246
2.674,0.208,0.247
2.679,0.213,0.247
2.684,0.219,0.248
2.690,0.224,0.248
2.695,0.229,0.249
2.700,0.234,0.249
2.705,0.240,0.250
2.711,0.245,0.250
2.716,0.250,0.251
2.722,0.256,0.251
2.727,0.261,0.252
2.732,0.267,0.253
2.738,0.272,0.253
2.743,0.278,0.254
2.749,0.283,0.254
2.754,0.289,0.255
2.760,0.294,0.255
2.766,0.300,0.256
2.771,0.306,0.256
2.777,0.311,0.257
2.783,0.317,0.258
2.788,0.323,0.258
2.794,0.328,0.259
2.800,0.334,0.259
2.805,0.340,0.260
2.811,0.346,0.261
2.817,0.351,0.261
2.823,0.357,0.262
2.829,0.363,0.262
2.835,0.369,0.263
3.105,0.609,0.291
3.103,0.615,0.291
3.106,0.621,0.291
2.884,0.625,0.271
2.882,0.630,0.271
2.885,0.636,0.272
2.884,-0.652,0.280
2.882,-0.646,0.280
2.885,-0.641,0.280
3.106,-0.638,0.300
3.103,-0.632,0.300
3.105,-0.626,0.300
2.836,-0.395,0.271
2.830,-0.389,0.271
2.824,-0.383,0.270
2.819,-0.377,0.269
2.813,-0.371,0.269
2.807,-0.365,0.268
2.801,-0.360,0.268
2.795,-0.354,0.267
2.789,-0.348,0.266
2.784,-0.342,0.266
2.778,-0.336,0.265
2.772,-0.331,0.264
2.766,-0.325,0.264
2.761,-0.319,0.263
2.755,-0.314,0.263
2.749,-0.308,0.262
2.744,-0.303,0.262
2.738,-0.297,0.261
2.733,-0.291,0.260
2.727,-0.286,0.260
2.722,-0.280,0.259
2.716,-0.275,0.259
2.711,-0.270,0.258
2.705,-0.264,0.258
2.700,-0.259,0.257
2.695,-0.253,0.256
2.689,-0.248,0.256
2.684,-0.243,0.255
2.679,-0.237,0.255
2.673,-0.232,0.254
2.668,-0.227,0.254
2.663,-0.222,0.253
2.658,-0.216,0.253
2.653,-0.211,0.252
2.647,-0.206,0.252
2.642,-0.201,0.251
2.637,-0.196,0.251
2.632,-0.191,0.250
2.627,-0.186,0.249
2.622,-0.181,0.249
2.617,-0.175,0.248
2.613,-0.171,0.248
2.613,-0.166,0.248
2.613,-0.161,0.248
2.613,-0.157,0.248
2.613,-0.152,0.248
2.613,-0.147,0.248
2.308,-0.126,0.219
2.308,-0.122,0.219
2.312,-0.118,0.219
2.613,-0.128,0.248
2.613,-0.124,0.248
2.613,-0.119,0.248
2.613,-0.114,0.248
2.613,-0.110,0.248
2.613,-0.105,0.248
2.613,-0.100,0.248
2.613,-0.096,0.248
2.613,-0.091,0.248
2.613,-0.086,0.248
2.613,-0.082,0.248
2.613,-0.077,0.248
2.613,-0.072,0.248
2.613,-0.068,0.248
2.613,-0.063,0.248
2.613,-0.058,0.248
2.613,-0.054,0.248
2.613,-0.049,0.248
2.613,-0.044,0.248
2.613,-0.040,0.248
2.613,-0.035,0.248
2.613,-0.030,0.248
2.613,-0.026,0.248
2.613,-0.021,0.248
2.613,-0.016,0.248
2.613,-0.012,0.248
2.613,-0.007,0.248
2.613,-0.002,0.248
2.613,0.002,0.248
2.613,0.007,0.248
2.613,0.012,0.248
2.613,0.016,0.248
2.613,0.021,0.248
2.613,0.026,0.248
2.613,0.030,0.248
2.613,0.035,0.248
2.613,0.040,0.248
2.613,0.044,0.248
2.613,0.049,0.248
2.613,0.054,0.248
2.613,0.058,0.248
2.613,0.063,0.248
2.613,0.068,0.248
2.613,0.072,0.248
2.613,0.077,0.248
2.613,0.082,0.248
2.613,0.086,0.248
2.613,0.091,0.248
2.613,0.096,0.248
2.613,0.100,0.248
2.312,0.093,0.219
2.308,0.097,0.219
2.308,0.101,0.219
2.613,0.119,0.248
2.613,0.124,0.248
2.613,0.128,0.248
2.613,0.133,0.248
2.613,0.138,0.248
2.613,0.142,0.248
2.613,0.147,0.248
2.618,0.152,0.248
2.623,0.157,0.249
2.628,0.162,0.249
2.633,0.167,0.250
2.638,0.172,0.250
2.643,0.177,0.251
2.648,0.182,0.251
2.653,0.187,0.252
2.658,0.193,0.252
2.663,0.198,0.253
2.669,0.203,0.254
2.674,0.208,0.254
2.679,0.213,0.255
2.684,0.219,0.255
2.690,0.224,0.256
2.695,0.229,0.256
2.700,0.234,0.257
2.705,0.240,0.257
2.711,0.245,0.258
2.716,0.250,0.258
2.722,0.256,0.259
2.727,0.261,0.260
2.732,0.267,0.260
2.738,0.272,0.261
2.743,0.278,0.261
2.749,0.283,0.262
2.754,0.289,0.262
2.760,0.294,0.263
2.766,0.300,0.264
2.771,0.306,0.264
2.777,0.311,0.265
2.783,0.317,0.265
2.788,0.323,0.266
2.794,0.328,0.267
2.800,0.334,0.267
2.805,0.340,0.268
2.811,0.346,0.268
2.817,0.351,0.269
2.823,0.357,0.270
2.829,0.363,0.270
2.835,0.369,0.271
3.112,0.599,0.300
3.104,0.603,0.300
3.103,0.609,0.300
2.889,0.615,0.280
2.883,0.619,0.279
2.882,0.624,0.279
2.885,0.631,0.280
2.885,-0.647,0.288
2.882,-0.641,0.288
2.884,-0.636,0.288
3.104,-0.626,0.309
3.104,-0.621,0.309
3.111,-0.616,0.309
2.836,-0.395,0.279
2.830,-0.389,0.279
2.824,-0.383,0.278
2.819,-0.377,0.277
2.813,-0.371,0.277
2.807,-0.365,0.276
2.801,-0.360,0.275
2.795,-0.354,0.275
2.789,-0.348,0.274
2.784,-0.342,0.273
2.778,-0.336,0.273
2.772,-0.331,0.272
2.766,-0.325,0.272
2.761,-0.319,0.271
2.755,-0.314,0.270
2.749,-0.308,0.270
2.744,-0.303,0.269
2.738,-0.297,0.269
2.733,-0.291,0.268
2.727,-0.286,0.267
2.722,-0.280,0.267
2.716,-0.275,0.266
2.711,-0.270,0.266
2.705,-0.264,0.265
2.700,-0.259,0.264
2.695,-0.253,0.264
2.689,-0.248,0.263
2.684,-0.243,0.263
2.679,-0.237,0.262
2.673,-0.232,0.262
2.668,-0.227,0.261
2.663,-0.222,0.261
2.658,-0.216,0.260
2.653,-0.211,0.259
2.647,-0.206,0.259
2.642,-0.201,0.258
2.637,-0.196,0.258
2.632,-0.191,0.257
2.627,-0.186,0.257
2.622,-0.181,0.256
2.617,-0.175,0.256
2.613,-0.171,0.255
2.613,-0.166,0.255
2.613,-0.161,0.255
2.613,-0.157,0.255
2.613,-0.152,0.255
2.613,-0.147,0.255
2.314,-0.126,0.226
2.314,-0.122,0.226
2.317,-0.118,0.226
2.613,-0.128,0.255
2.613,-0.124,0.255
2.613,-0.119,0.255
2.613,-0.114,0.255
2.613,-0.110,0.255
2.613,-0.105,0.255
2.613,-0.100,0.255
2.613,-0.096,0.255
2.613,-0.091,0.255
2.613,-0.086,0.255
2.613,-0.082,0.255
2.613,-0.077,0.255
2.613,-0.072,0.255
2.613,-0.068,0.255
2.613,-0.063,0.255
2.613,-0.058,0.255
2.613,-0.054,0.255
2.613,-0.049,0.255
2.613,-0.044,0.255
2.613,-0.040,0.255
2.613,-0.035,0.255
2.613,-0.030,0.255
2.613,-0.026,0.255
2.613,-0.021,0.255
2.613,-0.016,0.255
2.613,-0.012,0.255
2.613,-0.007,0.255
2.613,-0.002,0.255
2.613,0.002,0.255
2.613,0.007,0.255
2.613,0.012,0.255
2.613,0.016,0.255
2.613,0.021,0.255
2.613,0.026,0.255
2.613,0.030,0.255
2.613,0.035,0.255
2.613,0.040,0.255
2.613,0.044,0.255
2.613,0.049,0.255
2.613,0.054,0.255
2.613,0.058,0.255
2.613,0.063,0.255
2.613,0.068,0.255
2.613,0.072,0.255
2.613,0.077,0.255
2.613,0.082,0.255
2.613,0.086,0.255
2.613,0.091,0.255
2.613,0.096,0.255
2.613,0.100,0.255
2.317,0.093,0.226
2.314,0.097,0.226
2.314,0.101,0.226
2.613,0.119,0.255
2.613,0.124,0.255
2.613,0.128,0.255
2.613,0.133,0.255
2.613,0.138,0.255
2.613,0.142,0.255
2.613,0.147,0.255
2.618,0.152,0.256
2.623,0.157,0.256
2.628,0.162,0.257
2.633,0.167,0.257
2.638,0.172,0.258
2.643,0.177,0.258
2.648,0.182,0.259
2.653,0.187,0.259
2.658,0.193,0.260
2.663,0.198,0.260
2.669,0.203,0.261
2.674,0.208,0.261
2.679,0.213,0.262
2.684,0.219,0.263
2.690,0.224,0.263
2.695,0.229,0.264
2.700,0.234,0.264
2.705,0.240,0.265
2.711,0.245,0.265
2.716,0.250,0.266
2.722,0.256,0.267
2.727,0.261,0.267
2.732,0.267,0.268
2.738,0.272,0.268
2.743,0.278,0.269
2.749,0.283,0.269
2.754,0.289,0.270
2.760,0.294,0.271
2.766,0.300,0.271
2.771,0.306,0.272
2.777,0.311,0.272
2.783,0.317,0.273
2.788,0.323,0.274
2.794,0.328,0.274
2.800,0.334,0.275
2.805,0.340,0.276
2.811,0.346,0.276
2.817,0.351,0.277
2.823,0.357,0.277
2.829,0.363,0.278
2.835,0.369,0.279
3.108,0.592,0.308
3.104,0.597,0.308
3.104,0.603,0.308
2.885,0.609,0.288
2.883,0.614,0.287
2.883,0.619,0.287
2.885,-0.641,0.296
2.882,-0.635,0.296
2.884,-0.630,0.296
2.890,-0.626,0.297
3.104,-0.621,0.317
3.104,-0.615,0.317
3.107,-0.610,0.317
2.836,-0.395,0.287
2.830,-0.389,0.286
2.824,-0.383,0.286
2.819,-0.377,0.285
2.813,-0.371,0.284
2.807,-0.365,0.284
2.801,-0.360,0.283
2.795,-0.354,0.282
2.789,-0.348,0.282
2.784,-0.342,0.281
2.778,-0.336,0.281
2.772,-0.331,0.280
2.766,-0.325,0.279
2.761,-0.319,0.279
2.755,-0.314,0.278
2.749,-0.308,0.277
2.744,-0.303,0.277
2.738,-0.297,0.276
2.733,-0.291,0.276
2.727,-0.286,0.275
2.722,-0.280,0.274
2.716,-0.275,0.274
2.711,-0.270,0.273
2.705,-0.264,0.273
2.700,-0.259,0.272
2.695,-0.253,0.271
2.689,-0.248,0.271
2.684,-0.243,0.270
2.679,-0.237,0.270
2.673,-0.232,0.269
2.668,-0.227,0.268
2.663,-0.222,0.268
2.658,-0.216,0.267
2.653,-0.211,0.267
2.647,-0.206,0.266
2.642,-0.201,0.266
2.637,-0.196,0.265
2.632,-0.191,0.265
2.627,-0.186,0.264
2.622,-0.181,0.264
2.617,-0.175,0.263
2.613,-0.171,0.263
2.613,-0.166,0.263
2.613,-0.161,0.263
2.613,-0.157,0.262
2.613,-0.152,0.262
2.613,-0.147,0.262
2.320,-0.126,0.233
2.319,-0.122,0.233
2.322,-0.118,0.233
2.613,-0.128,0.262
2.613,-0.124,0.262
2.613,-0.119,0.262
2.613,-0.114,0.262
2.613,-0.110,0.262
2.613,-0.105,0.262
2.613,-0.100,0.262
2.613,-0.096,0.262
2.613,-0.091,0.262
2.613,-0.086,0.262
2.613,-0.082,0.262
2.613,-0.077,0.262
2.613,-0.072,0.262
2.613,-0.068,0.262
2.613,-0.063,0.262
2.613,-0.058,0.262
2.613,-0.054,0.262
2.613,-0.049,0.262
2.613,-0.044,0.262
2.613,-0.040,0.262
2.613,-0.035,0.262
2.613,-0.030,0.262
2.613,-0.026,0.262
2.613,-0.021,0.262
2.613,-0.016,0.262
2.613,-0.012,0.262
2.613,-0.007,0.262
2.613,-0.002,0.262
2.613,0.002,0.262
2.613,0.007,0.262
2.613,0.012,0.262
2.613,0.016,0.262
2.613,0.021,0.262
2.613,0.026,0.262
2.613,0.030,0.262
2.613,0.035,0.262
2.613,0.040,0.262
2.613,0.044,0.262
2.613,0.049,0.262
2.613,0.054,0.262
2.613,0.058,0.262
2.613,0.063,0.262
2.613,0.068,0.262
2.613,0.072,0.262
2.613,0.077,0.262
2.613,0.082,0.262
2.613,0.086,0.262
2.613,0.091,0.262
2.613,0.096,0.262
2.613,0.100,0.262
2.322,0.093,0.233
2.319,0.097,0.233
2.319,0.102,0.233
2.613,0.119,0.262
2.613,0.124,0.262
2.613,0.128,0.262
2.613,0.133,0.262
2.613,0.138,0.262
2.613,0.142,0.262
2.613,0.147,0.262
2.618,0.152,0.263
2.623,0.157,0.263
2.628,0.162,0.264
2.633,0.167,0.265
2.638,0.172,0.265
2.643,0.177,0.266
2.648,0.182,0.266
2.653,0.187,0.267
2.658,0.193,0.267
2.663,0.198,0.268
2.669,0.203,0.268
2.674,0.208,0.269
2.679,0.213,0.269
2.684,0.219,0.270
2.690,0.224,0.271
2.695,0.229,0.271
2.700,0.234,0.272
2.705,0.240,0.272
2.711,0.245,0.273
2.716,0.250,0.273
2.722,0.256,0.274
2.727,0.261,0.275
2.732,0.267,0.275
2.738,0.272,0.276
2.743,0.278,0.276
2.749,0.283,0.277
2.754,0.289,0.278
2.760,0.294,0.278
2.766,0.300,0.279
2.771,0.306,0.280
2.777,0.311,0.280
2.783,0.317,0.281
2.788,0.323,0.281
2.794,0.328,0.282
2.800,0.334,0.283
2.805,0.340,0.283
2.811,0.346,0.284
2.817,0.351,0.285
2.823,0.357,0.285
2.829,0.363,0.286
2.835,0.369,0.287
3.106,0.586,0.317
3.104,0.592,0.317
3.105,0.598,0.317
2.885,0.604,0.296
2.883,0.608,0.295
2.883,0.614,0.296
2.883,-0.630,0.304
2.883,-0.625,0.304
2.887,-0.620,0.304
3.105,-0.615,0.326
3.104,-0.609,0.326
3.106,-0.604,0.326
2.836,-0.395,0.295
2.830,-0.389,0.294
2.824,-0.383,0.294
2.819,-0.377,0.293
2.813,-0.371,0.292
2.807,-0.365,0.292
2.801,-0.360,0.291
2.795,-0.354,0.290
2.789,-0.348,0.290
2.784,-0.342,0.289
2.778,-0.336,0.288
2.772,-0.331,0.288
2.766,-0.325,0.287
2.761,-0.319,0.286
2.755,-0.314,0.286
2.749,-0.308,0.285
2.744,-0.303,0.284
2.738,-0.297,0.284
2.733,-0.291,0.283
2.727,-0.286,0.283
2.722,-0.280,0.282
2.716,-0.275,0.281
2.711,-0.270,0.281
2.705,-0.264,0.280
2.700,-0.259,0.279
2.695,-0.253,0.279
2.689,-0.248,0.278
2.684,-0.243,0.278
2.679,-0.237,0.277
2.673,-0.232,0.276
2.668,-0.227,0.276
2.663,-0.222,0.275
2.658,-0.216,0.275
2.653,-0.211,0.274
2.647,-0.206,0.274
2.642,-0.201,0.273
2.637,-0.196,0.272
2.632,-0.191,0.272
2.627,-0.186,0.271
2.622,-0.181,0.271
2.617,-0.175,0.270
2.613,-0.171,0.270
2.613,-0.166,0.270
2.613,-0.161,0.270
2.613,-0.157,0.270
2.613,-0.152,0.270
2.613,-0.147,0.270
2.326,-0.127,0.240
2.325,-0.123,0.240
2.326,-0.118,0.240
2.613,-0.128,0.270
2.613,-0.124,0.270
2.613,-0.119,0.270
2.613,-0.114,0.270
2.613,-0.110,0.269
2.613,-0.105,0.269
2.613,-0.100,0.269
2.613,-0.096,0.269
2.613,-0.091,0.269
2.613,-0.086,0.269
2.613,-0.082,0.269
2.613,-0.077,0.269
2.613,-0.072,0.269
2.613,-0.068,0.269
2.613,-0.063,0.269
2.613,-0.058,0.269
2.613,-0.054,0.269
2.613,-0.049,0.269
2.613,-0.044,0.269
2.613,-0.040,0.269
2.613,-0.035,0.269
2.613,-0.030,0.269
2.613,-0.026,0.269
2.613,-0.021,0.269
2.613,-0.016,0.269
2.613,-0.012,0.269
2.613,-0.007,0.269
2.613,-0.002,0.269
2.613,0.002,0.269
2.613,0.007,0.269
2.613,0.012,0.269
2.613,0.016,0.269
2.613,0.021,0.269
2.613,0.026,0.269
2.613,0.030,0.269
2.613,0.035,0.269
2.613,0.040,0.269
2.613,0.044,0.269
2.613,0.049,0.269
2.613,0.054,0.269
2.613,0.058,0.269
2.613,0.063,0.269
2.613,0.068,0.269
2.613,0.072,0.269
2.613,0.077,0.269
2.613,0.082,0.269
2.613,0.086,0.269
2.613,0.091,0.269
2.613,0.096,0.269
2.613,0.100,0.269
2.327,0.094,0.240
2.325,0.098,0.240
2.325,0.102,0.240
2.613,0.119,0.270
2.613,0.124,0.270
2.613,0.128,0.270
2.613,0.133,0.270
2.613,0.138,0.270
2.613,0.142,0.270
2.613,0.147,0.270
2.618,0.152,0.270
2.623,0.157,0.271
2.628,0.162,0.271
2.633,0.167,0.272
2.638,0.172,0.272
2.643,0.177,0.273
2.648,0.182,0.273
2.653,0.187,0.274
2.658,0.193,0.275
2.663,0.198,0.275
2.669,0.203,0.276
2.674,0.208,0.276
2.679,0.213,0.277
2.684,0.219,0.277
2.690,0.224,0.278
2.695,0.229,0.279
2.700,0.234,0.279
2.705,0.240,0.280
2.711,0.245,0.280
2.716,0.250,0.281
2.722,0.256,0.282
2.727,0.261,0.282
2.732,0.267,0.283
2.738,0.272,0.283
2.743,0.278,0.284
2.749,0.283,0.285
2.754,0.289,0.285
2.760,0.294,0.286
2.766,0.300,0.287
2.771,0.306,0.287
2.777,0.311,0.288
2.783,0.317,0.289
2.788,0.323,0.289
2.794,0.328,0.290
2.800,0.334,0.290
2.805,0.340,0.291
2.811,0.346,0.292
2.817,0.351,0.292
2.823,0.357,0.293
2.829,0.363,0.294
2.835,0.369,0.295
3.105,0.581,0.325
3.103,0.586,0.325
3.105,0.592,0.326
2.884,0.598,0.303
2.882,0.603,0.303
2.884,0.609,0.304
2.883,-0.625,0.312
2.883,-0.619,0.312
2.885,-0.614,0.312
3.105,-0.609,0.335
3.103,-0.603,0.334
3.106,-0.598,0.335
2.836,-0.395,0.303
2.830,-0.389,0.302
2.824,-0.383,0.302
2.819,-0.377,0.301
2.813,-0.371,0.300
2.807,-0.365,0.299
2.801,-0.360,0.299
2.795,-0.354,0.298
2.789,-0.348,0.297
2.784,-0.342,0.297
2.778,-0.336,0.296
2.772,-0.331,0.295
2.766,-0.325,0.295
2.761,-0.319,0.294
2.755,-0.314,0.293
2.749,-0.308,0.293
2.744,-0.303,0.292
2.738,-0.297,0.291
2.733,-0.291,0.291
2.727,-0.286,0.290
2.722,-0.280,0.289
2.716,-0.275,0.289
2.711,-0.270,0.288
2.705,-0.264,0.288
2.700,-0.259,0.287
2.695,-0.253,0.286
2.689,-0.248,0.286
2.684,-0.243,0.285
2.679,-0.237,0.285
2.673,-0.232,0.284
2.668,-0.227,0.283
2.663,-0.222,0.283
2.658,-0.216,0.282
2.653,-0.211,0.282
2.647,-0.206,0.281
2.642,-0.201,0.280
2.637,-0.196,0.280
2.632,-0.191,0.279
2.627,-0.186,0.279
2.622,-0.181,0.278
2.617,-0.175,0.277
2.613,-0.171,0.277
2.613,-0.166,0.277
2.613,-0.161,0.277
2.613,-0.157,0.277
2.613,-0.152,0.277
2.613,-0.147,0.277
2.333,-0.127,0.247
2.330,-0.123,0.247
2.331,-0.119,0.247
2.613,-0.128,0.277
2.613,-0.124,0.277
2.613,-0.119,0.277
2.613,-0.114,0.277
2.613,-0.110,0.277
2.613,-0.105,0.277
2.613,-0.100,0.277
2.613,-0.096,0.277
2.613,-0.091,0.277
2.613,-0.086,0.277
2.613,-0.082,0.277
2.613,-0.077,0.277
2.613,-0.072,0.277
2.613,-0.068,0.277
2.613,-0.063,0.277
2.613,-0.058,0.277
2.613,-0.054,0.277
2.613,-0.049,0.277
2.613,-0.044,0.277
2.613,-0.040,0.277
2.613,-0.035,0.277
2.613,-0.030,0.277
2.613,-0.026,0.277
2.613,-0.021,0.276
2.613,-0.016,0.276
2.613,-0.012,0.276
2.613,-0.007,0.276
2.613,-0.002,0.276
2.613,0.002,0.276
2.613,0.007,0.276
2.613,0.012,0.276
2.613,0.016,0.276
2.613,0.021,0.276
2.613,0.026,0.277
2.613,0.030,0.277
2.613,0.035,0.277
2.613,0.040,0.277
2.613,0.044,0.277
2.613,0.049,0.277
2.613,0.054,0.277
2.613,0.058,0.277
2.613,0.063,0.277
2.613,0.068,0.277
2.613,0.072,0.277
2.613,0.077,0.277
2.613,0.082,0.277
2.613,0.086,0.277
2.613,0.091,0.277
2.613,0.096,0.277
2.613,0.100,0.277
2.333,0.094,0.247
2.330,0.098,0.247
2.331,0.102,0.247
2.613,0.119,0.277
2.613,0.124,0.277
2.613,0.128,0.277
2.613,0.133,0.277
2.613,0.138,0.277
2.613,0.142,0.277
2.613,0.147,0.277
2.618,0.152,0.277
2.623,0.157,0.278
2.628,0.162,0.279
2.633,0.167,0.279
2.638,0.172,0.280
2.643,0.177,0.280
2.648,0.182,0.281
2.653,0.187,0.281
2.658,0.193,0.282
2.663,0.198,0.283
2.669,0.203,0.283
2.674,0.208,0.284
2.679,0.213,0.284
2.684,0.219,0.285
2.690,0.224,0.286
2.695,0.229,0.286
2.700,0.234,0.287
2.705,0.240,0.287
2.711,0.245,0.288
2.716,0.250,0.289
2.722,0.256,0.289
2.727,0.261,0.290
2.732,0.267,0.290
2.738,0.272,0.291
2.743,0.278,0.292
2.749,0.283,0.292
2.754,0.289,0.293
2.760,0.294,0.294
2.766,0.300,0.294
2.771,0.306,0.295
2.777,0.311,0.296
2.783,0.317,0.296
2.788,0.323,0.297
2.794,0.328,0.298
2.800,0.334,0.298
2.805,0.340,0.299
2.811,0.346,0.300
2.817,0.351,0.300
2.823,0.357,0.301
2.829,0.363,0.302
2.835,0.369,0.302
3.105,0.575,0.334
3.103,0.580,0.334
3.106,0.586,0.334
2.884,0.593,0.311
2.882,0.598,0.311
2.884,0.603,0.312
2.884,-0.619,0.320
2.883,-0.614,0.320
2.885,-0.609,0.320
3.106,-0.604,0.344
3.103,-0.597,0.343
3.105,-0.592,0.343
2.836,-0.395,0.311
2.830,-0.389,0.310
2.824,-0.383,0.309
2.819,-0.377,0.309
2.813,-0.371,0.308
2.807,-0.365,0.307
2.801,-0.360,0.307
2.795,-0.354,0.306
2.789,-0.348,0.305
2.784,-0.342,0.304
2.778,-0.336,0.304
2.772,-0.331,0.303
2.766,-0.325,0.302
2.761,-0.319,0.302
2.755,-0.314,0.301
2.749,-0.308,0.300
2.744,-0.303,0.300
2.738,-0.297,0.299
2.733,-0.291,0.298
2.727,-0.286,0.298
2.722,-0.280,0.297
2.716,-0.275,0.296
2.711,-0.270,0.296
2.705,-0.264,0.295
2.700,-0.259,0.294
2.695,-0.253,0.294
2.689,-0.248,0.293
2.684,-0.243,0.293
2.679,-0.237,0.292
2.673,-0.232,0.291
2.668,-0.227,0.291
2.663,-0.222,0.290
2.658,-0.216,0.289
2.653,-0.211,0.289
2.647,-0.206,0.288
2.642,-0.201,0.288
2.637,-0.196,0.287
2.632,-0.191,0.286
2.627,-0.186,0.286
2.622,-0.181,0.285
2.617,-0.175,0.285
2.613,-0.171,0.284
2.613,-0.166,0.284
2.613,-0.161,0.284
2.613,-0.157,0.284
2.613,-0.152,0.284
2.613,-0.147,0.284
2.339,-0.128,0.254
2.336,-0.123,0.254
2.336,-0.119,0.254
2.613,-0.128,0.284
2.613,-0.124,0.284
2.613,-0.119,0.284
2.613,-0.114,0.284
2.613,-0.110,0.284
2.613,-0.105,0.284
2.613,-0.100,0.284
2.613,-0.096,0.284
2.613,-0.091,0.284
2.613,-0.086,0.284
2.613,-0.082,0.284
2.613,-0.077,0.284
2.613,-0.072,0.284
2.613,-0.068,0.284
2.613,-0.063,0.284
2.613,-0.058,0.284
2.613,-0.054,0.284
2.613,-0.049,0.284
2.613,-0.044,0.284
2.613,-0.040,0.284
2.613,-0.035,0.284
2.613,-0.030,0.284
2.613,-0.026,0.284
2.613,-0.021,0.284
2.613,-0.016,0.284
2.613,-0.012,0.284
2.613,-0.007,0.284
2.613,-0.002,0.284
2.613,0.002,0.284
2.613,0.007,0.284
2.613,0.012,0.284
2.613,0.016,0.284
2.613,0.021,0.284
2.613,0.026,0.284
2.613,0.030,0.284
2.613,0.035,0.284
2.613,0.040,0.284
2.613,0.044,0.284
2.613,0.049,0.284
2.613,0.054,0.284
2.613,0.058,0.284
2.613,0.063,0.284
2.613,0.068,0.284
2.613,0.072,0.284
2.613,0.077,0.284
2.613,0.082,0.284
2.613,0.086,0.284
2.613,0.091,0.284
2.613,0.096,0.284
2.613,0.100,0.284
2.338,0.094,0.254
2.336,0.098,0.254
2.337,0.102,0.254
2.613,0.119,0.284
2.613,0.124,0.284
2.613,0.128,0.284
2.613,0.133,0.284
2.613,0.138,0.284
2.613,0.142,0.284
2.613,0.147,0.284
2.618,0.152,0.285
2.623,0.157,0.285
2.628,0.162,0.286
2.633,0.167,0.286
2.638,0.172,0.287
2.643,0.177,0.288
2.648,0.182,0.288
2.653,0.187,0.289
2.658,0.193,0.289
2.663,0.198,0.290
2.669,0.203,0.291
2.674,0.208,0.291
2.679,0.213,0.292
2.684,0.219,0.292
2.690,0.224,0.293
2.695,0.229,0.294
2.700,0.234,0.294
2.705,0.240,0.295
2.711,0.245,0.296
2.716,0.250,0.296
2.722,0.256,0.297
2.727,0.261,0.297
2.732,0.267,0.298
2.738,0.272,0.299
2.743,0.278,0.299
2.749,0.283,0.300
2.754,0.289,0.301
2.760,0.294,0.301
2.766,0.300,0.302
2.771,0.306,0.303
2.777,0.311,0.303
2.783,0.317,0.304
2.788,0.323,0.305
2.794,0.328,0.305
2.800,0.334,0.306
2.805,0.340,0.307
2.811,0.346,0.308
2.817,0.351,0.308
2.823,0.357,0.309
2.829,0.363,0.310
2.835,0.369,0.310
3.112,0.565,0.343
3.105,0.569,0.343
3.103,0.574,0.343
2.890,0.583,0.320
2.884,0.587,0.319
2.882,0.592,0.319
2.885,0.598,0.320
2.884,-0.614,0.328
2.882,-0.608,0.328
2.884,-0.603,0.328
3.104,-0.592,0.352
3.105,-0.586,0.352
3.112,-0.582,0.352
2.838,-0.390,0.319
2.832,-0.384,0.318
2.826,-0.378,0.317
2.813,-0.371,0.316
2.807,-0.365,0.315
2.801,-0.360,0.314
2.795,-0.354,0.314
2.789,-0.348,0.313
2.784,-0.342,0.312
2.778,-0.336,0.312
2.772,-0.331,0.311
2.766,-0.325,0.310
2.761,-0.319,0.309
2.755,-0.314,0.309
2.749,-0.308,0.308
2.744,-0.303,0.307
2.738,-0.297,0.307
2.733,-0.291,0.306
2.727,-0.286,0.305
2.722,-0.280,0.305
2.716,-0.275,0.304
2.711,-0.270,0.303
2.705,-0.264,0.303
2.700,-0.259,0.302
2.695,-0.253,0.301
2.689,-0.248,0.301
2.684,-0.243,0.300
2.679,-0.237,0.299
2.673,-0.232,0.299
2.668,-0.227,0.298
2.663,-0.222,0.298
2.658,-0.216,0.297
2.653,-0.211,0.296
2.647,-0.206,0.296
2.642,-0.201,0.295
2.637,-0.196,0.294
2.632,-0.191,0.294
2.627,-0.186,0.293
2.622,-0.181,0.293
2.617,-0.175,0.292
2.613,-0.171,0.292
2.613,-0.166,0.292
2.613,-0.161,0.292
2.613,-0.157,0.291
2.613,-0.152,0.291
2.613,-0.147,0.291
2.346,-0.128,0.262
2.342,-0.123,0.261
2.342,-0.119,0.261
2.613,-0.128,0.291
2.613,-0.124,0.291
2.613,-0.119,0.291
2.613,-0.114,0.291
2.613,-0.110,0.291
2.613,-0.105,0.291
2.613,-0.100,0.291
2.613,-0.096,0.291
2.613,-0.091,0.291
2.613,-0.086,0.291
2.613,-0.082,0.291
2.613,-0.077,0.291
2.613,-0.072,0.291
2.613,-0.068,0.291
2.613,-0.063,0.291
2.613,-0.058,0.291
2.613,-0.054,0.291
2.613,-0.049,0.291
2.613,-0.044,0.291
2.613,-0.040,0.291
2.613,-0.035,0.291
2.613,-0.030,0.291
2.613,-0.026,0.291
2.613,-0.021,0.291
2.613,-0.016,0.291
2.613,-0.012,0.291
2.613,-0.007,0.291
2.613,-0.002,0.291
2.613,0.002,0.291
2.613,0.007,0.291
2.613,0.012,0.291
2.613,0.016,0.291
2.613,0.021,0.291
2.613,0.026,0.291
2.613,0.030,0.291
2.613,0.035,0.291
2.613,0.040,0.291
2.613,0.044,0.291
2.613,0.049,0.291
2.613,0.054,0.291
2.613,0.058,0.291
2.613,0.063,0.291
2.613,0.068,0.291
2.613,0.072,0.291
2.613,0.077,0.291
2.613,0.082,0.291
2.613,0.086,0.291
2.613,0.091,0.291
2.613,0.096,0.291
2.613,0.100,0.291
2.343,0.094,0.261
2.341,0.098,0.261
2.343,0.103,0.261
2.613,0.119,0.291
2.613,0.124,0.291
2.613,0.128,0.291
2.613,0.133,0.291
2.613,0.138,0.291
2.613,0.142,0.291
2.613,0.147,0.291
2.618,0.152,0.292
2.623,0.157,0.293
2.628,0.162,0.293
2.633,0.167,0.294
2.638,0.172,0.294
2.643,0.177,0.295
2.648,0.182,0.296
2.653,0.187,0.296
2.658,0.193,0.297
2.663,0.198,0.297
2.669,0.203,0.298
2.674,0.208,0.299
2.679,0.213,0.299
2.684,0.219,0.300
2.690,0.224,0.300
2.695,0.229,0.301
2.700,0.234,0.302
2.705,0.240,0.302
2.711,0.245,0.303
2.716,0.250,0.304
2.722,0.256,0.304
2.727,0.261,0.305
2.732,0.267,0.306
2.738,0.272,0.306
2.743,0.278,0.307
2.749,0.283,0.308
2.754,0.289,0.308
2.760,0.294,0.309
2.766,0.300,0.310
2.771,0.306,0.310
2.777,0.311,0.311
2.783,0.317,0.312
2.788,0.323,0.313
2.794,0.328,0.313
2.800,0.334,0.314
2.805,0.340,0.315
2.811,0.346,0.315
2.817,0.351,0.316
2.829,0.358,0.318
2.835,0.364,0.318
2.843,0.370,0.319
3.108,0.558,0.352
3.104,0.563,0.351
3.104,0.569,0.351
2.887,0.577,0.328
2.883,0.582,0.327
2.883,0.587,0.328
2.885,-0.609,0.336
2.882,-0.603,0.336
2.884,-0.598,0.336
2.892,-0.594,0.337
3.104,-0.586,0.360
3.104,-0.580,0.360
3.108,-0.575,0.361
2.838,-0.390,0.327
2.832,-0.384,0.326
2.826,-0.378,0.325
2.820,-0.372,0.325
2.815,-0.366,0.324
2.809,-0.361,0.323
2.803,-0.355,0.322
2.797,-0.349,0.322
2.791,-0.343,0.321
2.785,-0.337,0.320
2.780,-0.332,0.319
2.774,-0.326,0.319
2.768,-0.320,0.318
2.763,-0.315,0.317
2.749,-0.308,0.316
2.744,-0.303,0.315
2.738,-0.297,0.314
2.733,-0.291,0.314
2.727,-0.286,0.313
2.722,-0.280,0.312
2.716,-0.275,0.312
2.711,-0.270,0.311
2.705,-0.264,0.310
2.700,-0.259,0.310
2.695,-0.253,0.309
2.689,-0.248,0.308
2.684,-0.243,0.308
2.679,-0.237,0.307
2.673,-0.232,0.306
2.668,-0.227,0.306
2.663,-0.222,0.305
2.658,-0.216,0.304
2.653,-0.211,0.304
2.647,-0.206,0.303
2.642,-0.201,0.302
2.637,-0.196,0.302
2.632,-0.191,0.301
2.627,-0.186,0.301
2.622,-0.181,0.300
2.617,-0.175,0.299
2.613,-0.171,0.299
2.613,-0.166,0.299
2.613,-0.161,0.299
2.613,-0.157,0.299
2.613,-0.152,0.299
2.613,-0.147,0.299
2.352,-0.128,0.269
2.347,-0.124,0.268
2.347,-0.120,0.268
2.356,-0.116,0.269
2.613,-0.124,0.299
2.613,-0.119,0.299
2.613,-0.114,0.298
2.613,-0.110,0.298
2.613,-0.105,0.298
2.613,-0.100,0.298
2.613,-0.096,0.298
2.613,-0.091,0.298
2.613,-0.086,0.298
2.613,-0.082,0.298
2.613,-0.077,0.298
2.613,-0.072,0.298
2.613,-0.068,0.298
2.613,-0.063,0.298
2.613,-0.058,0.298
2.613,-0.054,0.298
2.613,-0.049,0.298
2.613,-0.044,0.298
2.613,-0.040,0.298
2.613,-0.035,0.298
2.613,-0.030,0.298
2.613,-0.026,0.298
2.613,-0.021,0.298
2.613,-0.016,0.298
2.613,-0.012,0.298
2.613,-0.007,0.298
2.613,-0.002,0.298
2.613,0.002,0.298
2.613,0.007,0.298
2.613,0.012,0.298
2.613,0.016,0.298
2.613,0.021,0.298
2.613,0.026,0.298
2.613,0.030,0.298
2.613,0.035,0.298
2.613,0.040,0.298
2.613,0.044,0.298
2.613,0.049,0.298
2.613,0.054,0.298
2.613,0.058,0.298
2.613,0.063,0.298
2.613,0.068,0.298
2.613,0.072,0.298
2.613,0.077,0.298
2.613,0.082,0.298
2.613,0.086,0.298
2.613,0.091,0.298
2.613,0.096,0.298
2.613,0.100,0.298
2.348,0.094,0.268
2.347,0.099,0.268
2.350,0.103,0.268
2.613,0.119,0.299
2.613,0.124,0.299
2.613,0.128,0.299
2.613,0.133,0.299
2.613,0.138,0.299
2.613,0.142,0.299
2.613,0.147,0.299
2.618,0.152,0.299
2.623,0.157,0.300
2.628,0.162,0.300
2.633,0.167,0.301
2.638,0.172,0.302
2.643,0.177,0.302
2.648,0.182,0.303
2.653,0.187,0.304
2.658,0.193,0.304
2.663,0.198,0.305
2.669,0.203,0.305
2.674,0.208,0.306
2.679,0.213,0.307
2.684,0.219,0.307
2.690,0.224,0.308
2.695,0.229,0.309
2.700,0.234,0.309
2.705,0.240,0.310
2.711,0.245,0.311
2.716,0.250,0.311
2.722,0.256,0.312
2.727,0.261,0.313
2.732,0.267,0.313
2.738,0.272,0.314
2.743,0.278,0.315
2.749,0.283,0.315
2.754,0.289,0.316
2.766,0.295,0.317
2.772,0.301,0.318
2.778,0.306,0.319
2.783,0.312,0.320
2.789,0.318,0.320
2.795,0.323,0.321
2.800,0.329,0.322
2.806,0.335,0.322
2.812,0.341,0.323
2.818,0.346,0.324
2.823,0.352,0.325
2.829,0.358,0.325
2.835,0.364,0.326
2.843,0.370,0.327
3.106,0.552,0.360
3.104,0.557,0.360
3.104,0.563,0.360
2.885,0.571,0.336
2.883,0.576,0.335
2.883,0.582,0.336
2.883,-0.598,0.344
2.884,-0.592,0.344
2.888,-0.588,0.345
3.105,-0.580,0.369
3.104,-0.574,0.369
3.106,-0.569,0.369
2.838,-0.390,0.335
2.832,-0.384,0.334
2.826,-0.378,0.333
2.820,-0.372,0.333
2.815,-0.366,0.332
2.809,-0.361,0.331
2.803,-0.355,0.330
2.797,-0.349,0.329
2.791,-0.343,0.329
2.785,-0.337,0.328
2.780,-0.332,0.327
2.774,-0.326,0.326
2.768,-0.320,0.326
2.763,-0.315,0.325
2.757,-0.309,0.324
2.751,-0.303,0.324
2.746,-0.298,0.323
2.740,-0.292,0.322
2.735,-0.287,0.321
2.729,-0.281,0.321
2.724,-0.276,0.320
2.718,-0.270,0.319
2.713,-0.265,0.319
2.708,-0.259,0.318
2.702,-0.254,0.317
2.689,-0.248,0.316
2.684,-0.243,0.315
2.679,-0.237,0.314
2.673,-0.232,0.314
2.668,-0.227,0.313
2.663,-0.222,0.312
2.658,-0.216,0.312
2.653,-0.211,0.311
2.647,-0.206,0.310
2.642,-0.201,0.310
2.637,-0.196,0.309
2.632,-0.191,0.308
2.627,-0.186,0.308
2.622,-0.181,0.307
2.617,-0.175,0.307
2.613,-0.171,0.306
2.613,-0.166,0.306
2.613,-0.161,0.306
2.613,-0.157,0.306
2.613,-0.152,0.306
2.613,-0.147,0.306
2.359,-0.129,0.276
2.353,-0.124,0.275
2.353,-0.120,0.275
2.361,-0.116,0.276
2.613,-0.124,0.306
2.613,-0.119,0.306
2.613,-0.114,0.306
2.613,-0.110,0.306
2.613,-0.105,0.306
2.613,-0.100,0.306
2.613,-0.096,0.306
2.613,-0.091,0.306
2.613,-0.086,0.306
2.613,-0.082,0.306
2.613,-0.077,0.306
2.613,-0.072,0.306
2.613,-0.068,0.306
2.613,-0.063,0.306
2.613,-0.058,0.306
2.613,-0.054,0.306
2.613,-0.049,0.306
2.613,-0.044,0.306
2.613,-0.040,0.305
2.613,-0.035,0.305
2.613,-0.030,0.305
2.613,-0.026,0.305
2.613,-0.021,0.305
2.613,-0.016,0.305
2.613,-0.012,0.305
2.613,-0.007,0.305
2.613,-0.002,0.305
2.613,0.002,0.305
2.613,0.007,0.305
2.613,0.012,0.305
2.613,0.016,0.305
2.613,0.021,0.305
2.613,0.026,0.305
2.613,0.030,0.305
2.613,0.035,0.305
2.613,0.040,0.305
2.613,0.044,0.306
2.613,0.049,0.306
2.613,0.054,0.306
2.613,0.058,0.306
2.613,0.063,0.306
2.613,0.068,0.306
2.613,0.072,0.306
2.613,0.077,0.306
2.613,0.082,0.306
2.613,0.086,0.306
2.613,0.091,0.306
2.613,0.096,0.306
2.613,0.100,0.306
2.353,0.095,0.275
2.353,0.099,0.275
2.356,0.103,0.276
2.613,0.119,0.306
2.613,0.124,0.306
2.613,0.128,0.306
2.613,0.133,0.306
2.613,0.138,0.306
2.613,0.142,0.306
2.613,0.147,0.306
2.618,0.152,0.306
2.623,0.157,0.307
2.628,0.162,0.308
2.633,0.167,0.308
2.638,0.172,0.309
2.643,0.177,0.310
2.648,0.182,0.310
2.653,0.187,0.311
2.658,0.193,0.312
2.663,0.198,0.312
2.669,0.203,0.313
2.674,0.208,0.313
2.679,0.213,0.314
2.684,0.219,0.315
2.690,0.224,0.315
2.695,0.229,0.316
2.706,0.235,0.318
2.712,0.240,0.318
2.717,0.246,0.319
2.722,0.251,0.320
2.728,0.256,0.320
2.733,0.262,0.321
2.739,0.267,0.322
2.744,0.273,0.322
2.750,0.278,0.323
2.755,0.284,0.324
2.761,0.289,0.324
2.766,0.295,0.325
2.772,0.301,0.326
2.778,0.306,0.327
2.783,0.312,0.327
2.789,0.318,0.328
2.795,0.323,0.329
2.800,0.329,0.330
2.806,0.335,0.330
2.812,0.341,0.331
2.818,0.346,0.332
2.823,0.352,0.333
2.829,0.358,0.333
2.835,0.364,0.334
2.843,0.370,0.335
3.105,0.546,0.369
3.103,0.551,0.368
3.105,0.558,0.369
2.885,0.566,0.344
2.882,0.571,0.343
2.884,0.576,0.344
2.883,-0.592,0.352
2.883,-0.587,0.352
2.885,-0.582,0.352
3.105,-0.575,0.378
3.103,-0.569,0.378
3.106,-0.563,0.378
2.838,-0.390,0.343
2.832,-0.384,0.342
2.826,-0.378,0.341
2.820,-0.372,0.340
2.815,-0.366,0.340
2.809,-0.361,0.339
2.803,-0.355,0.338
2.797,-0.349,0.337
2.791,-0.343,0.337
2.785,-0.337,0.336
2.780,-0.332,0.335
2.774,-0.326,0.334
2.768,-0.320,0.333
2.763,-0.315,0.333
2.757,-0.309,0.332
2.751,-0.303,0.331
2.746,-0.298,0.330
2.740,-0.292,0.330
2.735,-0.287,0.329
2.729,-0.281,0.328
2.724,-0.276,0.328
2.718,-0.270,0.327
2.713,-0.265,0.326
2.708,-0.259,0.325
2.702,-0.254,0.325
2.697,-0.249,0.324
2.691,-0.243,0.323
2.686,-0.238,0.323
2.681,-0.233,0.322
2.676,-0.227,0.321
2.670,-0.222,0.321
2.665,-0.217,0.320
2.660,-0.212,0.319
2.655,-0.207,0.319
2.650,-0.201,0.318
2.644,-0.196,0.317
2.632,-0.191,0.316
2.627,-0.186,0.315
2.622,-0.181,0.314
2.617,-0.175,0.314
2.613,-0.171,0.313
2.613,-0.166,0.313
2.613,-0.161,0.313
2.613,-0.157,0.313
2.613,-0.152,0.313
2.613,-0.147,0.313
2.365,-0.129,0.283
2.359,-0.124,0.283
2.359,-0.120,0.283
2.366,-0.116,0.283
2.613,-0.124,0.313
2.613,-0.119,0.313
2.613,-0.114,0.313
2.613,-0.110,0.313
2.613,-0.105,0.313
2.613,-0.100,0.313
2.613,-0.096,0.313
2.613,-0.091,0.313
2.613,-0.086,0.313
2.613,-0.082,0.313
2.613,-0.077,0.313
2.613,-0.072,0.313
2.613,-0.068,0.313
2.613,-0.063,0.313
2.613,-0.058,0.313
2.613,-0.054,0.313
2.613,-0.049,0.313
2.613,-0.044,0.313
2.613,-0.040,0.313
2.613,-0.035,0.313
2.613,-0.030,0.313
2.613,-0.026,0.313
2.613,-0.021,0.313
2.613,-0.016,0.313
2.613,-0.012,0.313
2.613,-0.007,0.313
2.613,-0.002,0.313
2.613,0.002,0.313
2.613,0.007,0.313
2.613,0.012,0.313
2.613,0.016,0.313
2.613,0.021,0.313
2.613,0.026,0.313
2.613,0.030,0.313
2.613,0.035,0.313
2.613,0.040,0.313
2.613,0.044,0.313
2.613,0.049,0.313
2.613,0.054,0.313
2.613,0.058,0.313
2.613,0.063,0.313
2.613,0.068,0.313
2.613,0.072,0.313
2.613,0.077,0.313
2.613,0.082,0.313
2.613,0.086,0.313
2.613,0.091,0.313
2.613,0.096,0.313
2.613,0.100,0.313
2.359,0.095,0.282
2.359,0.099,0.282
2.363,0.103,0.283
2.613,0.119,0.313
2.613,0.124,0.313
2.613,0.128,0.313
2.613,0.133,0.313
2.613,0.138,0.313
2.613,0.142,0.313
2.613,0.147,0.313
2.618,0.152,0.314
2.623,0.157,0.314
2.628,0.162,0.315
2.633,0.167,0.316
2.638,0.172,0.316
2.649,0.178,0.318
2.654,0.183,0.318
2.659,0.188,0.319
2.664,0.193,0.320
2.669,0.198,0.320
2.675,0.203,0.321
2.680,0.209,0.322
2.685,0.214,0.322
2.690,0.219,0.323
2.696,0.224,0.324
2.701,0.230,0.324
2.706,0.235,0.325
2.712,0.240,0.326
2.717,0.246,0.326
2.722,0.251,0.327
2.728,0.256,0.328
2.733,0.262,0.329
2.739,0.267,0.329
2.744,0.273,0.330
2.750,0.278,0.331
2.755,0.284,0.331
2.761,0.289,0.332
2.766,0.295,0.333
2.772,0.301,0.334
2.778,0.306,0.334
2.783,0.312,0.335
2.789,0.318,0.336
2.795,0.323,0.337
2.800,0.329,0.337
2.806,0.335,0.338
2.812,0.341,0.339
2.818,0.346,0.340
2.823,0.352,0.340
2.829,0.358,0.341
2.835,0.364,0.342
2.843,0.370,0.343
3.105,0.540,0.377
3.103,0.546,0.377
3.106,0.552,0.377
2.884,0.560,0.352
2.882,0.565,0.351
2.884,0.571,0.352
2.884,-0.587,0.360
2.883,-0.582,0.360
2.885,-0.577,0.360
3.106,-0.569,0.387
3.103,-0.563,0.386
3.105,-0.558,0.386
2.838,-0.390,0.351
2.832,-0.384,0.350
2.826,-0.378,0.349
2.820,-0.372,0.348
2.815,-0.366,0.348
2.809,-0.361,0.347
2.803,-0.355,0.346
2.797,-0.349,0.345
2.791,-0.343,0.344
2.785,-0.337,0.344
2.780,-0.332,0.343
2.774,-0.326,0.342
2.768,-0.320,0.341
2.763,-0.315,0.340
2.757,-0.309,0.340
2.751,-0.303,0.339
2.746,-0.298,0.338
2.740,-0.292,0.337
2.735,-0.287,0.337
2.729,-0.281,0.336
2.724,-0.276,0.335
2.718,-0.270,0.334
2.713,-0.265,0.334
2.708,-0.259,0.333
2.702,-0.254,0.332
2.697,-0.249,0.332
2.691,-0.243,0.331
2.686,-0.238,0.330
2.681,-0.233,0.329
2.676,-0.227,0.329
2.670,-0.222,0.328
2.665,-0.217,0.327
2.660,-0.212,0.327
2.655,-0.207,0.326
2.650,-0.201,0.325
2.644,-0.196,0.325
2.639,-0.191,0.324
2.634,-0.186,0.323
2.629,-0.181,0.323
2.624,-0.176,0.322
2.620,-0.171,0.321
2.619,-0.166,0.321
2.618,-0.161,0.321
2.618,-0.157,0.321
2.618,-0.152,0.321
2.618,-0.147,0.321
2.372,-0.129,0.291
2.364,-0.125,0.290
2.364,-0.120,0.290
2.371,-0.117,0.291
2.618,-0.124,0.321
2.618,-0.119,0.321
2.618,-0.115,0.321
2.618,-0.110,0.321
2.618,-0.105,0.321
2.618,-0.101,0.321
2.618,-0.096,0.321
2.618,-0.091,0.321
2.618,-0.087,0.321
2.618,-0.082,0.321
2.618,-0.077,0.321
2.618,-0.072,0.321
2.618,-0.068,0.321
2.618,-0.063,0.321
2.618,-0.058,0.321
2.618,-0.054,0.321
2.618,-0.049,0.321
2.618,-0.044,0.321
2.618,-0.040,0.321
2.618,-0.035,0.321
2.618,-0.030,0.321
2.618,-0.026,0.321
2.618,-0.021,0.321
2.618,-0.016,0.321
2.618,-0.012,0.321
2.618,-0.007,0.321
2.618,-0.002,0.321
2.618,0.002,0.321
2.618,0.007,0.321
2.618,0.012,0.321
2.618,0.016,0.321
2.618,0.021,0.321
2.618,0.026,0.321
2.618,0.030,0.321
2.618,0.035,0.321
2.618,0.040,0.321
2.618,0.044,0.321
2.618,0.049,0.321
2.618,0.054,0.321
2.618,0.058,0.321
2.618,0.063,0.321
2.618,0.068,0.321
2.618,0.072,0.321
2.618,0.077,0.321
2.618,0.082,0.321
2.618,0.087,0.321
2.618,0.091,0.321
2.618,0.096,0.321
2.618,0.101,0.321
2.364,0.095,0.290
2.364,0.099,0.290
2.369,0.104,0.290
2.618,0.119,0.321
2.618,0.124,0.321
2.618,0.129,0.321
2.618,0.133,0.321
2.618,0.138,0.321
2.619,0.143,0.321
2.620,0.148,0.321
2.624,0.152,0.322
2.629,0.157,0.322
2.634,0.162,0.323
2.639,0.167,0.324
2.644,0.173,0.324
2.649,0.178,0.325
2.654,0.183,0.326
2.659,0.188,0.326
2.664,0.193,0.327
2.669,0.198,0.328
2.675,0.203,0.328
2.680,0.209,0.329
2.685,0.214,0.330
2.690,0.219,0.330
2.696,0.224,0.331
2.701,0.230,0.332
2.706,0.235,0.333
2.712,0.240,0.333
2.717,0.246,0.334
2.722,0.251,0.335
2.728,0.256,0.335
2.733,0.262,0.336
2.739,0.267,0.337
2.744,0.273,0.338
2.750,0.278,0.338
2.755,0.284,0.339
2.761,0.289,0.340
2.766,0.295,0.341
2.772,0.301,0.341
2.778,0.306,0.342
2.783,0.312,0.343
2.789,0.318,0.344
2.795,0.323,0.344
2.800,0.329,0.345
2.806,0.335,0.346
2.812,0.341,0.347
2.818,0.346,0.348
2.823,0.352,0.348
2.829,0.358,0.349
2.835,0.364,0.350
2.843,0.370,0.351
3.113,0.530,0.387
3.105,0.535,0.386
3.103,0.540,0.386
2.891,0.551,0.360
2.884,0.555,0.360
2.882,0.560,0.359
2.885,0.566,0.360
2.884,-0.582,0.368
2.882,-0.576,0.368
2.884,-0.571,0.368
3.103,-0.557,0.395
3.105,-0.552,0.395
3.112,-0.547,0.396
2.838,-0.390,0.359
2.832,-0.384,0.358
2.826,-0.378,0.357
2.820,-0.372,0.356
2.815,-0.366,0.355
2.809,-0.361,0.355
2.803,-0.355,0.354
2.797,-0.349,0.353
2.791,-0.343,0.352
2.785,-0.337,0.351
2.780,-0.332,0.351
2.774,-0.326,0.350
2.768,-0.320,0.349
2.763,-0.315,0.348
2.757,-0.309,0.347
2.751,-0.303,0.347
2.746,-0.298,0.346
2.740,-0.292,0.345
2.735,-0.287,0.344
2.729,-0.281,0.344
2.724,-0.276,0.343
2.718,-0.270,0.342
2.713,-0.265,0.341
2.708,-0.259,0.341
2.702,-0.254,0.340
2.697,-0.249,0.339
2.691,-0.243,0.338
2.686,-0.238,0.338
2.681,-0.233,0.337
2.676,-0.227,0.336
2.670,-0.222,0.336
2.665,-0.217,0.335
2.660,-0.212,0.334
2.655,-0.207,0.333
2.650,-0.201,0.333
2.644,-0.196,0.332
2.639,-0.191,0.331
2.634,-0.186,0.331
2.629,-0.181,0.330
2.624,-0.176,0.329
2.620,-0.171,0.329
2.619,-0.166,0.329
2.618,-0.161,0.328
2.618,-0.157,0.328
2.618,-0.152,0.328
2.618,-0.147,0.328
2.379,-0.130,0.298
2.370,-0.125,0.297
2.370,-0.121,0.297
2.376,-0.117,0.298
2.618,-0.124,0.328
2.618,-0.119,0.328
2.618,-0.115,0.328
2.618,-0.110,0.328
2.618,-0.105,0.328
2.618,-0.101,0.328
2.618,-0.096,0.328
2.618,-0.091,0.328
2.618,-0.087,0.328
2.618,-0.082,0.328
2.618,-0.077,0.328
2.618,-0.072,0.328
2.618,-0.068,0.328
2.618,-0.063,0.328
2.618,-0.058,0.328
2.618,-0.054,0.328
2.618,-0.049,0.328
2.618,-0.044,0.328
2.618,-0.040,0.328
2.618,-0.035,0.328
2.618,-0.030,0.328
2.618,-0.026,0.328
2.618,-0.021,0.328
2.618,-0.016,0.328
2.618,-0.012,0.328
2.618,-0.007,0.328
2.618,-0.002,0.328
2.618,0.002,0.328
2.618,0.007,0.328
2.618,0.012,0.328
2.618,0.016,0.328
2.618,0.021,0.328
2.618,0.026,0.328
2.618,0.030,0.328
2.618,0.035,0.328
2.618,0.040,0.328
2.618,0.044,0.328
2.618,0.049,0.328
2.618,0.054,0.328
2.618,0.058,0.328
2.618,0.063,0.328
2.618,0.068,0.328
2.618,0.072,0.328
2.618,0.077,0.328
2.618,0.082,0.328
2.618,0.087,0.328
2.618,0.091,0.328
2.618,0.096,0.328
2.378,0.091,0.298
2.370,0.095,0.297
2.370,0.100,0.297
2.376,0.104,0.298
2.618,0.119,0.328
2.618,0.124,0.328
2.618,0.129,0.328
2.618,0.133,0.328
2.618,0.138,0.328
2.619,0.143,0.328
2.620,0.148,0.329
2.624,0.152,0.329
2.629,0.157,0.330
2.634,0.162,0.330
2.639,0.167,0.331
2.644,0.173,0.332
2.649,0.178,0.332
2.654,0.183,0.333
2.659,0.188,0.334
2.664,0.193,0.334
2.669,0.198,0.335
2.675,0.203,0.336
2.680,0.209,0.337
2.685,0.214,0.337
2.690,0.219,0.338
2.696,0.224,0.339
2.701,0.230,0.339
2.706,0.235,0.340
2.712,0.240,0.341
2.717,0.246,0.342
2.722,0.251,0.342
2.728,0.256,0.343
2.733,0.262,0.344
2.739,0.267,0.345
2.744,0.273,0.345
2.750,0.278,0.346
2.755,0.284,0.347
2.761,0.289,0.348
2.766,0.295,0.348
2.772,0.301,0.349
2.778,0.306,0.350
2.783,0.312,0.351
2.789,0.318,0.351
2.795,0.323,0.352
2.800,0.329,0.353
2.806,0.335,0.354
2.812,0.341,0.355
2.818,0.346,0.355
2.823,0.352,0.356
2.829,0.358,0.357
2.835,0.364,0.358
2.843,0.370,0.359
3.109,0.524,0.395
3.104,0.529,0.394
3.104,0.534,0.394
2.887,0.545,0.368
2.883,0.550,0.368
2.882,0.555,0.368
2.885,-0.577,0.377
2.882,-0.571,0.376
2.884,-0.566,0.376
3.104,-0.552,0.404
3.104,-0.546,0.403
3.108,-0.541,0.404
2.838,-0.390,0.367
2.832,-0.384,0.366
2.826,-0.378,0.365
2.820,-0.372,0.364
2.815,-0.366,0.363
2.809,-0.361,0.362
2.803,-0.355,0.362
2.797,-0.349,0.361
2.791,-0.343,0.360
2.785,-0.337,0.359
2.780,-0.332,0.358
2.774,-0.326,0.358
2.768,-0.320,0.357
2.763,-0.315,0.356
2.757,-0.309,0.355
2.751,-0.303,0.354
2.746,-0.298,0.354
2.740,-0.292,0.353
2.735,-0.287,0.352
2.729,-0.281,0.351
2.724,-0.276,0.350
2.718,-0.270,0.350
2.713,-0.265,0.349
2.708,-0.259,0.348
2.702,-0.254,0.347
2.697,-0.249,0.347
2.691,-0.243,0.346
2.686,-0.238,0.345
2.681,-0.233,0.344
2.676,-0.227,0.344
2.670,-0.222,0.343
2.665,-0.217,0.342
2.660,-0.212,0.342
2.655,-0.207,0.341
2.650,-0.201,0.340
2.644,-0.196,0.339
2.639,-0.191,0.339
2.634,-0.186,0.338
2.629,-0.181,0.337
2.624,-0.176,0.337
2.620,-0.171,0.336
2.619,-0.166,0.336
2.618,-0.161,0.336
2.618,-0.157,0.336
2.618,-0.152,0.336
2.618,-0.147,0.336
2.618,-0.143,0.336
2.376,-0.125,0.305
2.376,-0.121,0.305
2.382,-0.117,0.305
2.618,-0.124,0.336
2.618,-0.119,0.336
2.618,-0.115,0.335
2.618,-0.110,0.335
2.618,-0.105,0.335
2.618,-0.101,0.335
2.618,-0.096,0.335
2.618,-0.091,0.335
2.618,-0.087,0.335
2.618,-0.082,0.335
2.618,-0.077,0.335
2.618,-0.072,0.335
2.618,-0.068,0.335
2.618,-0.063,0.335
2.618,-0.058,0.335
2.618,-0.054,0.335
2.618,-0.049,0.335
2.618,-0.044,0.335
2.618,-0.040,0.335
2.618,-0.035,0.335
2.618,-0.030,0.335
2.618,-0.026,0.335
2.618,-0.021,0.335
2.618,-0.016,0.335
2.618,-0.012,0.335
2.618,-0.007,0.335
2.618,-0.002,0.335
2.618,0.002,0.335
2.618,0.007,0.335
2.618,0.012,0.335
2.618,0.016,0.335
2.618,0.021,0.335
2.618,0.026,0.335
2.618,0.030,0.335
2.618,0.035,0.335
