14.677,-0.642,-0.704
14.676,-0.616,-0.704
14.677,-0.642,-0.664
14.676,-0.616,-0.664
15.158,0.636,-0.686
15.144,0.663,-0.685
15.159,0.691,-0.686
14.677,-0.642,-0.624
14.676,-0.616,-0.624
14.888,-0.332,-0.632
14.864,-0.305,-0.631
14.841,-0.278,-0.630
14.817,-0.251,-0.629
14.794,-0.225,-0.628
14.770,-0.198,-0.627
14.747,-0.171,-0.626
14.724,-0.145,-0.625
14.433,-0.116,-0.613
14.413,-0.090,-0.612
14.397,-0.064,-0.611
14.380,-0.039,-0.611
14.364,-0.013,-0.610
14.348,0.013,-0.609
14.331,0.038,-0.609
14.315,0.064,-0.608
14.326,0.090,-0.608
15.158,0.636,-0.644
15.144,0.663,-0.644
15.159,0.691,-0.644
14.677,-0.642,-0.584
14.676,-0.616,-0.583
14.852,-0.332,-0.590
14.828,-0.305,-0.589
14.805,-0.278,-0.588
14.782,-0.251,-0.587
14.758,-0.224,-0.586
14.735,-0.197,-0.585
14.712,-0.171,-0.584
14.689,-0.144,-0.583
14.411,-0.116,-0.572
14.394,-0.090,-0.572
14.378,-0.064,-0.571
14.361,-0.038,-0.570
14.345,-0.013,-0.570
14.329,0.013,-0.569
14.312,0.038,-0.568
14.300,0.064,-0.568
14.326,0.090,-0.569
14.367,0.115,-0.571
15.158,0.636,-0.603
15.144,0.663,-0.602
15.159,0.691,-0.603
14.677,-0.642,-0.543
14.676,-0.616,-0.543
14.839,-0.358,-0.549
14.816,-0.331,-0.548
14.793,-0.304,-0.547
14.769,-0.277,-0.546
14.746,-0.250,-0.545
14.724,-0.223,-0.544
14.700,-0.197,-0.544
14.677,-0.170,-0.543
14.659,-0.144,-0.542
14.391,-0.116,-0.532
14.375,-0.090,-0.532
14.359,-0.064,-0.531
14.342,-0.038,-0.530
14.326,-0.013,-0.530
14.310,0.013,-0.529
14.293,0.038,-0.529
14.290,0.064,-0.528
14.326,0.090,-0.530
14.367,0.115,-0.531
14.409,0.142,-0.533
14.271,0.217,-0.528
14.239,0.242,-0.527
14.232,0.267,-0.526
14.252,0.293,-0.527
15.158,0.636,-0.561
15.144,0.663,-0.560
15.159,0.691,-0.561
14.677,-0.642,-0.503
14.676,-0.616,-0.503
14.827,-0.384,-0.508
14.804,-0.357,-0.507
14.781,-0.330,-0.506
14.757,-0.303,-0.505
14.734,-0.276,-0.505
14.711,-0.250,-0.504
14.688,-0.223,-0.503
14.665,-0.196,-0.502
14.642,-0.170,-0.501
14.391,-0.141,-0.493
14.372,-0.115,-0.492
14.356,-0.090,-0.491
14.340,-0.064,-0.491
14.323,-0.038,-0.490
14.307,-0.013,-0.490
14.291,0.013,-0.489
14.275,0.038,-0.489
14.285,0.064,-0.489
14.326,0.090,-0.490
14.367,0.115,-0.492
14.409,0.142,-0.493
14.451,0.168,-0.495
14.271,0.217,-0.489
14.239,0.242,-0.488
14.232,0.267,-0.487
14.252,0.293,-0.488
15.158,0.636,-0.519
15.144,0.663,-0.519
15.159,0.691,-0.520
14.677,-0.642,-0.463
14.676,-0.616,-0.463
14.792,-0.383,-0.466
14.768,-0.356,-0.465
14.745,-0.329,-0.465
14.722,-0.302,-0.464
14.699,-0.276,-0.463
14.676,-0.249,-0.462
14.653,-0.222,-0.462
14.630,-0.196,-0.461
14.614,-0.170,-0.460
14.383,-0.141,-0.453
14.367,-0.115,-0.452
14.351,-0.090,-0.452
14.335,-0.064,-0.451
14.319,-0.038,-0.451
14.303,-0.013,-0.450
14.287,0.013,-0.450
14.272,0.038,-0.449
14.285,0.064,-0.450
14.326,0.090,-0.451
14.367,0.115,-0.453
14.409,0.142,-0.454
14.451,0.168,-0.455
14.493,0.194,-0.457
14.271,0.217,-0.449
14.239,0.242,-0.449
14.232,0.267,-0.448
14.230,0.292,-0.448
15.158,0.636,-0.478
15.144,0.663,-0.477
15.159,0.691,-0.478
14.677,-0.642,-0.422
14.676,-0.616,-0.422
15.438,-0.621,-0.444
15.425,-0.592,-0.444
15.422,-0.565,-0.444
15.419,-0.537,-0.444
15.417,-0.509,-0.444
15.430,-0.482,-0.444
14.780,-0.409,-0.425
14.756,-0.382,-0.424
14.733,-0.355,-0.424
14.710,-0.328,-0.423
14.687,-0.302,-0.422
14.664,-0.275,-0.422
14.641,-0.248,-0.421
14.618,-0.222,-0.420
14.597,-0.195,-0.420
14.595,-0.169,-0.420
14.398,-0.141,-0.414
14.378,-0.116,-0.413
14.362,-0.090,-0.413
14.346,-0.064,-0.413
14.330,-0.038,-0.412
14.314,-0.013,-0.412
14.298,0.013,-0.411
14.282,0.038,-0.411
14.285,0.064,-0.411
14.326,0.090,-0.412
14.367,0.115,-0.413
14.409,0.142,-0.414
14.451,0.168,-0.416
14.493,0.194,-0.417
14.277,0.217,-0.411
14.246,0.242,-0.410
14.240,0.267,-0.410
14.260,0.293,-0.410
15.422,0.344,-0.444
14.397,0.501,-0.414
14.385,0.527,-0.414
14.373,0.552,-0.414
14.361,0.577,-0.413
14.350,0.602,-0.413
14.338,0.628,-0.413
14.369,0.655,-0.414
14.431,0.683,-0.415
14.677,-0.642,-0.382
14.676,-0.616,-0.382
15.391,-0.619,-0.401
15.383,-0.591,-0.400
15.375,-0.563,-0.400
15.367,-0.535,-0.400
15.361,-0.508,-0.400
15.365,-0.480,-0.400
14.767,-0.435,-0.384
14.744,-0.408,-0.384
14.721,-0.381,-0.383
14.698,-0.354,-0.382
14.675,-0.328,-0.382
14.652,-0.301,-0.381
14.629,-0.274,-0.381
14.607,-0.248,-0.380
14.584,-0.221,-0.379
14.571,-0.195,-0.379
14.595,-0.169,-0.380
14.420,-0.142,-0.375
14.389,-0.116,-0.374
14.373,-0.090,-0.374
14.357,-0.064,-0.373
14.341,-0.038,-0.373
14.325,-0.013,-0.373
14.309,0.013,-0.372
14.293,0.038,-0.372
14.289,0.064,-0.372
14.326,0.090,-0.373
14.367,0.115,-0.374
14.409,0.142,-0.375
14.451,0.168,-0.376
14.493,0.194,-0.377
14.536,0.221,-0.378
14.255,0.242,-0.371
14.252,0.267,-0.371
15.365,0.316,-0.400
15.422,0.344,-0.401
14.397,0.501,-0.375
14.385,0.527,-0.374
14.373,0.552,-0.374
14.361,0.577,-0.374
14.350,0.602,-0.374
14.338,0.628,-0.373
14.369,0.655,-0.374
14.430,0.683,-0.376
15.446,-0.704,-0.360
14.677,-0.642,-0.342
14.676,-0.616,-0.342
15.388,-0.619,-0.358
15.376,-0.591,-0.358
15.363,-0.563,-0.358
15.351,-0.535,-0.358
15.338,-0.507,-0.357
15.326,-0.479,-0.357
14.732,-0.434,-0.343
14.709,-0.407,-0.342
14.693,-0.380,-0.342
14.663,-0.354,-0.341
14.640,-0.327,-0.341
14.618,-0.300,-0.340
14.595,-0.274,-0.340
14.572,-0.247,-0.339
14.556,-0.221,-0.339
14.565,-0.195,-0.339
14.595,-0.169,-0.340
14.626,-0.144,-0.340
14.400,-0.116,-0.335
14.384,-0.090,-0.335
14.368,-0.064,-0.334
14.352,-0.038,-0.334
14.336,-0.013,-0.334
14.320,0.013,-0.333
14.304,0.038,-0.333
14.294,0.064,-0.333
14.326,0.090,-0.333
14.367,0.115,-0.334
14.409,0.142,-0.335
14.451,0.168,-0.336
14.493,0.194,-0.337
14.536,0.221,-0.338
14.255,0.242,-0.332
14.252,0.267,-0.332
15.365,0.316,-0.358
14.397,0.501,-0.335
14.385,0.527,-0.335
14.373,0.552,-0.335
14.361,0.577,-0.335
14.350,0.602,-0.334
14.338,0.628,-0.334
14.369,0.655,-0.335
14.430,0.683,-0.336
15.434,-0.703,-0.317
14.677,-0.642,-0.302
14.676,-0.616,-0.302
15.088,-0.606,-0.310
15.076,-0.579,-0.310
15.106,-0.553,-0.310
15.162,-0.528,-0.312
15.333,-0.507,-0.315
14.720,-0.460,-0.302
14.697,-0.433,-0.302
14.674,-0.406,-0.301
14.651,-0.379,-0.301
14.628,-0.353,-0.300
14.606,-0.326,-0.300
14.583,-0.299,-0.300
14.560,-0.273,-0.299
14.538,-0.247,-0.299
14.534,-0.221,-0.299
14.565,-0.195,-0.299
14.595,-0.169,-0.300
14.626,-0.144,-0.300
14.411,-0.116,-0.296
14.395,-0.090,-0.296
14.379,-0.064,-0.295
14.363,-0.038,-0.295
14.347,-0.013,-0.295
14.331,0.013,-0.294
14.315,0.038,-0.294
14.302,0.064,-0.294
14.326,0.090,-0.294
14.367,0.115,-0.295
14.409,0.142,-0.296
14.451,0.168,-0.297
14.493,0.194,-0.298
14.536,0.221,-0.299
14.255,0.242,-0.293
14.252,0.267,-0.293
14.665,0.301,-0.301
14.752,0.435,-0.303
14.736,0.461,-0.303
14.721,0.486,-0.302
14.397,0.501,-0.296
14.385,0.527,-0.296
14.373,0.552,-0.295
14.361,0.577,-0.295
14.350,0.602,-0.295
14.344,0.628,-0.295
14.401,0.656,-0.296
14.458,0.685,-0.297
14.677,-0.642,-0.261
14.676,-0.616,-0.261
15.088,-0.606,-0.269
15.076,-0.579,-0.269
15.106,-0.553,-0.269
15.162,-0.528,-0.270
14.708,-0.486,-0.262
14.685,-0.459,-0.261
14.642,-0.431,-0.261
14.580,-0.404,-0.260
14.566,-0.377,-0.259
14.551,-0.351,-0.259
14.537,-0.324,-0.259
14.522,-0.298,-0.259
14.508,-0.272,-0.258
14.493,-0.246,-0.258
14.479,-0.220,-0.258
14.465,-0.194,-0.257
14.450,-0.168,-0.257
14.436,-0.142,-0.257
14.422,-0.116,-0.257
14.406,-0.090,-0.256
14.390,-0.064,-0.256
14.374,-0.038,-0.256
14.358,-0.013,-0.256
14.342,0.013,-0.255
14.326,0.038,-0.255
14.311,0.064,-0.255
14.326,0.090,-0.255
14.367,0.115,-0.256
14.409,0.142,-0.256
14.451,0.168,-0.257
14.463,0.194,-0.257
14.474,0.220,-0.258
14.255,0.242,-0.254
14.252,0.267,-0.254
14.507,0.298,-0.258
14.518,0.324,-0.258
14.530,0.350,-0.259
14.541,0.377,-0.259
14.570,0.403,-0.259
14.662,0.432,-0.261
14.736,0.461,-0.262
14.721,0.486,-0.262
14.397,0.501,-0.256
14.385,0.527,-0.256
14.373,0.552,-0.256
14.362,0.577,-0.256
14.409,0.605,-0.257
14.467,0.633,-0.258
14.904,0.679,-0.266
14.941,0.707,-0.266
14.987,0.736,-0.267
15.010,-0.845,-0.226
14.865,-0.810,-0.224
14.767,-0.779,-0.223
14.672,-0.747,-0.221
14.581,-0.717,-0.220
14.497,-0.686,-0.219
14.413,-0.657,-0.217
14.375,-0.629,-0.217
14.363,-0.603,-0.216
14.350,-0.577,-0.216
14.338,-0.551,-0.216
14.326,-0.525,-0.216
14.313,-0.499,-0.216
14.301,-0.473,-0.215
14.289,-0.447,-0.215
14.277,-0.421,-0.215
14.264,-0.395,-0.215
14.252,-0.369,-0.215
14.240,-0.343,-0.215
14.228,-0.318,-0.214
14.216,-0.292,-0.214
14.204,-0.266,-0.214
14.192,-0.241,-0.214
14.180,-0.215,-0.214
14.168,-0.190,-0.213
14.156,-0.164,-0.213
14.144,-0.139,-0.213
14.132,-0.114,-0.213
14.120,-0.088,-0.213
14.109,-0.063,-0.212
14.098,-0.038,-0.212
14.103,-0.013,-0.212
14.112,0.013,-0.213
14.122,0.038,-0.213
14.131,0.063,-0.213
14.140,0.088,-0.213
14.149,0.114,-0.213
14.159,0.139,-0.213
14.168,0.164,-0.213
14.177,0.190,-0.214
14.187,0.215,-0.214
14.196,0.241,-0.214
14.205,0.266,-0.214
14.215,0.292,-0.214
14.224,0.318,-0.214
14.234,0.343,-0.214
14.243,0.369,-0.215
14.252,0.395,-0.215
14.262,0.420,-0.215
14.271,0.446,-0.215
14.281,0.472,-0.215
14.290,0.498,-0.215
14.300,0.524,-0.215
14.309,0.550,-0.216
14.319,0.576,-0.216
14.332,0.602,-0.216
14.392,0.630,-0.217
14.455,0.659,-0.218
14.518,0.687,-0.219
14.581,0.717,-0.220
14.648,0.746,-0.221
14.718,0.776,-0.222
14.789,0.806,-0.223
14.861,0.837,-0.224
11.529,1.229,-0.175
11.512,1.248,-0.174
11.520,1.270,-0.175
11.528,1.292,-0.175
11.535,1.314,-0.175
13.687,-3.455,-0.174
13.695,-3.431,-0.174
14.007,-2.438,-0.175
13.998,-2.410,-0.175
13.989,-2.383,-0.175
13.979,-2.356,-0.175
14.004,-2.334,-0.175
13.875,-2.287,-0.173
13.827,-2.254,-0.173
13.836,-2.230,-0.173
13.845,-2.206,-0.173
13.853,-2.182,-0.173
13.862,-2.158,-0.173
13.871,-2.134,-0.173
13.880,-2.110,-0.173
13.888,-2.086,-0.173
13.897,-2.062,-0.173
13.906,-2.038,-0.173
13.915,-2.014,-0.173
13.923,-1.990,-0.173
13.932,-1.966,-0.173
13.941,-1.942,-0.173
13.950,-1.917,-0.173
13.959,-1.893,-0.174
13.967,-1.869,-0.174
13.976,-1.845,-0.174
13.985,-1.821,-0.174
13.994,-1.796,-0.174
14.003,-1.772,-0.174
14.012,-1.748,-0.174
14.020,-1.723,-0.174
14.029,-1.699,-0.174
14.038,-1.675,-0.174
14.047,-1.650,-0.174
14.056,-1.626,-0.174
14.065,-1.602,-0.174
14.074,-1.577,-0.174
14.083,-1.553,-0.175
14.091,-1.528,-0.175
14.100,-1.504,-0.175
14.109,-1.479,-0.175
14.118,-1.455,-0.175
14.127,-1.430,-0.175
14.136,-1.405,-0.175
14.145,-1.381,-0.175
14.154,-1.356,-0.175
14.163,-1.332,-0.175
14.172,-1.307,-0.175
14.181,-1.282,-0.175
14.190,-1.257,-0.176
14.199,-1.233,-0.176
14.208,-1.208,-0.176
14.217,-1.183,-0.176
14.226,-1.158,-0.176
14.235,-1.133,-0.176
14.244,-1.109,-0.176
14.253,-1.084,-0.176
14.262,-1.059,-0.176
14.271,-1.034,-0.176
14.280,-1.009,-0.176
14.290,-0.984,-0.176
14.299,-0.959,-0.177
14.308,-0.934,-0.177
14.317,-0.909,-0.177
14.974,-0.870,-0.185
14.887,-0.838,-0.184
14.801,-0.807,-0.183
14.716,-0.776,-0.182
14.632,-0.745,-0.181
14.549,-0.715,-0.179
14.466,-0.685,-0.178
14.387,-0.656,-0.177
14.366,-0.629,-0.177
14.354,-0.603,-0.177
14.341,-0.576,-0.177
14.329,-0.550,-0.177
14.317,-0.524,-0.177
14.305,-0.498,-0.176
14.293,-0.472,-0.176
14.281,-0.446,-0.176
14.269,-0.420,-0.176
14.257,-0.395,-0.176
14.245,-0.369,-0.176
14.233,-0.343,-0.175
14.221,-0.317,-0.175
14.209,-0.292,-0.175
14.197,-0.266,-0.175
14.185,-0.241,-0.175
14.173,-0.215,-0.175
14.161,-0.190,-0.174
14.149,-0.164,-0.174
14.137,-0.139,-0.174
14.126,-0.113,-0.174
14.114,-0.088,-0.174
14.102,-0.063,-0.174
14.093,-0.038,-0.174
14.097,-0.013,-0.174
14.015,0.013,-0.173
13.947,0.037,-0.172
13.879,0.062,-0.171
13.812,0.086,-0.170
13.746,0.110,-0.169
13.680,0.134,-0.169
13.615,0.158,-0.168
13.551,0.181,-0.167
13.487,0.205,-0.166
13.424,0.228,-0.165
13.361,0.251,-0.165
13.299,0.273,-0.164
13.237,0.295,-0.163
13.176,0.318,-0.162
13.116,0.340,-0.162
13.056,0.361,-0.161
12.997,0.383,-0.160
12.938,0.404,-0.159
12.880,0.426,-0.159
12.822,0.447,-0.158
12.765,0.467,-0.157
12.708,0.488,-0.157
12.652,0.509,-0.156
12.596,0.529,-0.155
12.541,0.549,-0.155
12.512,0.570,-0.154
12.520,0.593,-0.154
12.528,0.616,-0.155
12.537,0.638,-0.155
12.545,0.661,-0.155
12.553,0.684,-0.155
12.562,0.707,-0.155
12.556,0.729,-0.155
12.542,0.751,-0.155
12.528,0.773,-0.155
12.515,0.794,-0.154
12.501,0.816,-0.154
12.488,0.837,-0.154
12.474,0.859,-0.154
12.460,0.880,-0.154
12.447,0.902,-0.154
12.433,0.923,-0.154
12.412,0.944,-0.153
12.364,0.962,-0.153
12.318,0.981,-0.152
12.271,0.999,-0.152
12.225,1.017,-0.151
12.179,1.035,-0.151
12.134,1.053,-0.150
12.714,1.127,-0.157
12.723,1.150,-0.157
12.732,1.174,-0.158
11.529,1.229,-0.143
11.512,1.248,-0.143
11.520,1.270,-0.143
11.528,1.292,-0.143
11.535,1.314,-0.143
18.420,-1.301,-0.177
18.429,-1.269,-0.177
17.198,-1.153,-0.165
17.095,-1.116,-0.164
14.876,-0.944,-0.143
14.913,-0.920,-0.143
16.793,-1.006,-0.161
14.974,-0.870,-0.144
14.887,-0.838,-0.143
14.399,-0.785,-0.138
14.403,-0.759,-0.138
14.412,-0.734,-0.138
14.447,-0.710,-0.139
14.462,-0.685,-0.139
14.387,-0.656,-0.138
14.366,-0.629,-0.138
14.354,-0.603,-0.138
14.341,-0.576,-0.138
14.329,-0.550,-0.137
14.317,-0.524,-0.137
14.305,-0.498,-0.137
14.293,-0.472,-0.137
14.281,-0.446,-0.137
14.269,-0.420,-0.137
14.257,-0.395,-0.137
14.245,-0.369,-0.137
14.233,-0.343,-0.136
14.221,-0.317,-0.136
14.209,-0.292,-0.136
14.197,-0.266,-0.136
14.185,-0.241,-0.136
14.173,-0.215,-0.136
14.161,-0.190,-0.136
14.149,-0.164,-0.136
14.137,-0.139,-0.135
14.126,-0.113,-0.135
14.114,-0.088,-0.135
14.102,-0.063,-0.135
14.093,-0.038,-0.135
14.097,-0.013,-0.135
14.106,0.013,-0.135
14.115,0.038,-0.135
14.034,0.063,-0.134
14.009,0.088,-0.134
14.143,0.114,-0.136
14.152,0.139,-0.136
14.161,0.164,-0.136
14.171,0.190,-0.136
14.180,0.215,-0.136
14.189,0.241,-0.136
14.198,0.266,-0.136
14.208,0.292,-0.136
14.217,0.317,-0.136
14.226,0.343,-0.136
14.236,0.369,-0.136
14.245,0.394,-0.137
14.254,0.420,-0.137
14.264,0.446,-0.137
14.271,0.472,-0.137
14.200,0.495,-0.136
14.209,0.520,-0.136
14.193,0.545,-0.136
14.184,0.570,-0.136
14.323,0.601,-0.137
14.372,0.629,-0.138
14.433,0.658,-0.138
14.495,0.686,-0.139
14.557,0.715,-0.140
14.620,0.745,-0.140
14.683,0.774,-0.141
14.747,0.804,-0.142
14.811,0.834,-0.142
14.876,0.864,-0.143
15.375,0.921,-0.148
15.034,0.927,-0.144
15.039,0.955,-0.144
15.370,1.003,-0.148
15.368,1.031,-0.148
15.367,1.058,-0.148
15.365,1.085,-0.148
15.363,1.113,-0.148
15.361,1.140,-0.148
15.359,1.168,-0.148
15.357,1.195,-0.148
15.354,1.223,-0.148
15.352,1.250,-0.148
15.350,1.277,-0.148
15.348,1.305,-0.148
15.345,1.332,-0.148
15.343,1.360,-0.148
15.340,1.387,-0.148
15.338,1.414,-0.148
15.335,1.442,-0.148
15.333,1.469,-0.148
15.330,1.496,-0.148
15.327,1.524,-0.148
15.325,1.551,-0.148
15.322,1.579,-0.148
15.319,1.606,-0.148
15.316,1.633,-0.148
15.313,1.661,-0.148
15.310,1.688,-0.148
15.307,1.715,-0.148
15.304,1.743,-0.148
15.301,1.770,-0.148
15.309,1.799,-0.148
15.320,1.828,-0.148
15.331,1.857,-0.148
15.341,1.886,-0.148
15.352,1.915,-0.148
15.362,1.944,-0.148
15.373,1.973,-0.149
15.384,2.003,-0.149
15.394,2.032,-0.149
15.405,2.061,-0.149
15.416,2.091,-0.149
15.427,2.120,-0.149
15.437,2.150,-0.149
15.448,2.180,-0.149
15.459,2.209,-0.150
15.470,2.239,-0.150
15.481,2.269,-0.150
15.491,2.299,-0.150
15.502,2.329,-0.150
15.513,2.358,-0.150
15.524,2.389,-0.151
15.535,2.419,-0.151
15.546,2.449,-0.151
15.557,2.479,-0.151
15.924,2.567,-0.155
15.948,2.600,-0.155
15.959,2.631,-0.155
15.970,2.662,-0.155
15.982,2.693,-0.155
15.993,2.724,-0.155
16.004,2.756,-0.156
16.016,2.787,-0.156
16.027,2.819,-0.156
16.039,2.850,-0.156
16.050,2.882,-0.156
16.061,2.913,-0.156
16.073,2.945,-0.157
16.084,2.977,-0.157
16.096,3.009,-0.157
16.108,3.041,-0.157
16.119,3.073,-0.157
16.131,3.105,-0.157
16.142,3.137,-0.158
16.154,3.169,-0.158
16.166,3.201,-0.158
16.177,3.234,-0.158
16.189,3.266,-0.158
16.201,3.299,-0.158
16.213,3.331,-0.159
16.224,3.364,-0.159
16.236,3.397,-0.159
16.248,3.429,-0.159
16.224,3.455,-0.159
16.236,3.488,-0.159
14.993,-0.871,-0.103
14.905,-0.839,-0.102
14.819,-0.808,-0.102
14.734,-0.777,-0.101
14.650,-0.746,-0.100
14.566,-0.716,-0.100
14.484,-0.686,-0.099
14.403,-0.656,-0.099
14.372,-0.629,-0.098
14.360,-0.603,-0.098
14.347,-0.577,-0.098
14.335,-0.551,-0.098
14.323,-0.524,-0.098
14.311,-0.498,-0.098
14.299,-0.472,-0.098
14.287,-0.447,-0.098
14.275,-0.421,-0.098
14.262,-0.395,-0.098
14.250,-0.369,-0.098
14.238,-0.343,-0.097
14.226,-0.318,-0.097
14.215,-0.292,-0.097
14.203,-0.266,-0.097
14.191,-0.241,-0.097
14.179,-0.215,-0.097
14.167,-0.190,-0.097
14.155,-0.164,-0.097
14.143,-0.139,-0.097
14.131,-0.114,-0.097
14.120,-0.088,-0.097
14.108,-0.063,-0.097
14.098,-0.038,-0.096
14.102,-0.013,-0.097
14.112,0.013,-0.097
14.121,0.038,-0.097
14.130,0.063,-0.097
14.139,0.088,-0.097
14.148,0.114,-0.097
14.158,0.139,-0.097
14.167,0.164,-0.097
14.176,0.190,-0.097
14.185,0.215,-0.097
14.195,0.241,-0.097
14.204,0.266,-0.097
14.213,0.292,-0.097
14.223,0.317,-0.097
14.232,0.343,-0.097
14.241,0.369,-0.098
14.251,0.394,-0.098
14.260,0.420,-0.098
14.269,0.446,-0.098
14.279,0.472,-0.098
14.288,0.498,-0.098
14.298,0.524,-0.098
14.307,0.549,-0.098
14.316,0.575,-0.098
14.331,0.602,-0.098
14.386,0.630,-0.099
14.447,0.658,-0.099
14.509,0.687,-0.099
14.571,0.716,-0.100
14.634,0.745,-0.100
14.697,0.775,-0.101
14.761,0.805,-0.101
14.826,0.835,-0.102
14.891,0.865,-0.102
14.993,-0.871,-0.062
14.905,-0.839,-0.061
14.819,-0.808,-0.061
14.734,-0.777,-0.061
14.650,-0.746,-0.060
14.566,-0.716,-0.060
14.484,-0.686,-0.060
14.403,-0.656,-0.059
14.372,-0.629,-0.059
14.360,-0.603,-0.059
14.347,-0.577,-0.059
14.335,-0.551,-0.059
14.323,-0.524,-0.059
14.311,-0.498,-0.059
14.299,-0.472,-0.059
14.234,-0.445,-0.058
14.221,-0.419,-0.058
14.209,-0.393,-0.058
14.197,-0.368,-0.058
14.185,-0.342,-0.058
14.173,-0.316,-0.058
14.161,-0.291,-0.058
14.149,-0.265,-0.058
14.153,-0.240,-0.058
14.179,-0.215,-0.058
14.167,-0.190,-0.058
14.155,-0.164,-0.058
14.143,-0.139,-0.058
14.131,-0.114,-0.058
14.120,-0.088,-0.058
14.108,-0.063,-0.058
14.098,-0.038,-0.058
14.102,-0.013,-0.058
14.112,0.013,-0.058
14.121,0.038,-0.058
14.130,0.063,-0.058
14.139,0.088,-0.058
14.148,0.114,-0.058
14.158,0.139,-0.058
14.167,0.164,-0.058
14.176,0.190,-0.058
14.185,0.215,-0.058
14.195,0.241,-0.058
14.204,0.266,-0.058
14.213,0.292,-0.058
14.223,0.317,-0.058
14.232,0.343,-0.058
14.241,0.369,-0.059
14.251,0.394,-0.059
14.260,0.420,-0.059
14.269,0.446,-0.059
14.279,0.472,-0.059
14.288,0.498,-0.059
14.298,0.524,-0.059
14.307,0.549,-0.059
14.316,0.575,-0.059
14.331,0.602,-0.059
14.386,0.630,-0.059
14.447,0.658,-0.059
14.509,0.687,-0.060
14.571,0.716,-0.060
14.634,0.745,-0.060
14.697,0.775,-0.060
14.761,0.805,-0.061
14.826,0.835,-0.061
14.891,0.865,-0.061
14.993,-0.871,-0.021
14.905,-0.839,-0.020
14.819,-0.808,-0.020
14.734,-0.777,-0.020
14.650,-0.746,-0.020
14.566,-0.716,-0.020
14.484,-0.686,-0.020
14.403,-0.656,-0.020
14.372,-0.629,-0.020
14.360,-0.603,-0.020
14.347,-0.577,-0.020
14.335,-0.551,-0.020
14.323,-0.524,-0.020
14.311,-0.498,-0.020
14.191,-0.469,-0.019
14.179,-0.443,-0.019
14.167,-0.417,-0.019
14.155,-0.392,-0.019
14.143,-0.366,-0.019
14.131,-0.341,-0.019
14.119,-0.315,-0.019
14.107,-0.290,-0.019
14.105,-0.264,-0.019
14.149,-0.240,-0.019
14.176,-0.215,-0.019
14.167,-0.190,-0.019
14.155,-0.164,-0.019
14.143,-0.139,-0.019
14.131,-0.114,-0.019
14.120,-0.088,-0.019
14.108,-0.063,-0.019
14.098,-0.038,-0.019
14.102,-0.013,-0.019
14.112,0.013,-0.019
14.121,0.038,-0.019
14.130,0.063,-0.019
14.139,0.088,-0.019
14.148,0.114,-0.019
14.158,0.139,-0.019
14.167,0.164,-0.019
14.176,0.190,-0.019
14.185,0.215,-0.019
14.195,0.241,-0.019
14.204,0.266,-0.019
14.213,0.292,-0.019
14.223,0.317,-0.019
14.232,0.343,-0.019
14.241,0.369,-0.020
14.251,0.394,-0.020
14.260,0.420,-0.020
14.269,0.446,-0.020
14.279,0.472,-0.020
14.288,0.498,-0.020
14.298,0.524,-0.020
14.307,0.549,-0.020
14.316,0.575,-0.020
14.331,0.602,-0.020
14.386,0.630,-0.020
14.447,0.658,-0.020
14.509,0.687,-0.020
14.571,0.716,-0.020
14.634,0.745,-0.020
14.697,0.775,-0.020
14.761,0.805,-0.020
14.826,0.835,-0.020
14.891,0.865,-0.020
14.858,-0.943,0.020
14.780,-0.912,0.020
14.787,-0.886,0.020
14.495,-0.842,0.020
14.418,-0.812,0.020
14.418,-0.786,0.020
14.427,-0.761,0.020
14.436,-0.735,0.020
14.446,-0.710,0.020
14.455,-0.684,0.020
14.403,-0.656,0.020
14.372,-0.629,0.020
14.360,-0.603,0.020
14.347,-0.577,0.020
14.335,-0.551,0.020
14.162,-0.519,0.019
14.150,-0.493,0.019
14.138,-0.467,0.019
14.126,-0.442,0.019
14.114,-0.416,0.019
14.102,-0.390,0.019
14.090,-0.365,0.019
14.078,-0.339,0.019
14.067,-0.314,0.019
14.055,-0.289,0.019
14.056,-0.264,0.019
14.103,-0.239,0.019
14.155,-0.215,0.019
14.167,-0.190,0.019
14.155,-0.164,0.019
14.143,-0.139,0.019
14.131,-0.114,0.019
14.120,-0.088,0.019
14.108,-0.063,0.019
14.098,-0.038,0.019
14.102,-0.013,0.019
14.112,0.013,0.019
14.121,0.038,0.019
14.130,0.063,0.019
14.139,0.088,0.019
14.148,0.114,0.019
14.158,0.139,0.019
14.167,0.164,0.019
14.176,0.190,0.019
14.185,0.215,0.019
14.195,0.241,0.019
14.204,0.266,0.019
14.213,0.292,0.019
14.223,0.317,0.019
14.190,0.342,0.019
14.148,0.366,0.019
14.155,0.392,0.019
14.164,0.417,0.019
14.173,0.443,0.019
14.183,0.469,0.019
14.192,0.494,0.019
14.201,0.520,0.019
14.211,0.546,0.019
14.316,0.575,0.020
14.331,0.602,0.020
14.386,0.630,0.020
14.447,0.658,0.020
14.509,0.687,0.020
14.571,0.716,0.020
14.634,0.745,0.020
14.697,0.775,0.020
14.761,0.805,0.020
14.826,0.835,0.020
14.891,0.865,0.020
15.031,0.900,0.021
15.041,0.928,0.021
15.051,0.955,0.021
15.063,0.983,0.021
14.829,-0.941,0.061
14.771,-0.911,0.061
14.778,-0.885,0.061
14.495,-0.842,0.060
14.417,-0.812,0.059
14.418,-0.786,0.059
14.427,-0.761,0.059
14.436,-0.735,0.059
14.446,-0.710,0.059
14.455,-0.684,0.059
14.403,-0.656,0.059
14.372,-0.629,0.059
14.360,-0.603,0.059
14.347,-0.577,0.059
14.104,-0.542,0.058
14.092,-0.516,0.058
14.080,-0.490,0.058
14.068,-0.465,0.058
14.056,-0.439,0.058
14.044,-0.414,0.058
14.032,-0.388,0.058
14.020,-0.363,0.058
14.008,-0.338,0.058
13.997,-0.312,0.057
13.999,-0.287,0.058
14.051,-0.263,0.058
14.103,-0.239,0.058
14.155,-0.215,0.058
14.167,-0.190,0.058
14.155,-0.164,0.058
14.143,-0.139,0.058
14.131,-0.114,0.058
14.120,-0.088,0.058
14.108,-0.063,0.058
14.098,-0.038,0.058
14.102,-0.013,0.058
14.112,0.013,0.058
14.121,0.038,0.058
14.130,0.063,0.058
14.111,0.088,0.058
14.077,0.113,0.058
14.086,0.138,0.058
14.095,0.164,0.058
14.104,0.189,0.058
14.114,0.214,0.058
14.195,0.241,0.058
14.204,0.266,0.058
14.213,0.292,0.058
14.223,0.317,0.058
14.190,0.342,0.058
14.148,0.366,0.058
14.155,0.392,0.058
14.164,0.417,0.058
14.173,0.443,0.058
14.183,0.469,0.058
14.192,0.494,0.058
14.201,0.520,0.058
14.211,0.546,0.058
14.316,0.575,0.059
14.331,0.602,0.059
14.366,0.629,0.059
14.354,0.654,0.059
14.342,0.679,0.059
14.334,0.704,0.059
14.384,0.733,0.059
14.447,0.762,0.059
14.501,0.790,0.060
14.503,0.817,0.060
14.522,0.844,0.060
14.585,0.873,0.060
14.648,0.903,0.060
14.831,0.941,0.061
15.063,0.983,0.062
14.829,-0.941,0.102
14.771,-0.911,0.101
14.778,-0.885,0.101
14.495,-0.842,0.099
14.417,-0.812,0.099
14.418,-0.786,0.099
14.427,-0.761,0.099
14.436,-0.735,0.099
14.446,-0.710,0.099
14.455,-0.684,0.099
14.403,-0.656,0.099
14.372,-0.629,0.098
14.360,-0.603,0.098
14.347,-0.577,0.098
14.104,-0.542,0.097
14.092,-0.516,0.097
14.080,-0.490,0.096
14.068,-0.465,0.096
14.056,-0.439,0.096
14.044,-0.414,0.096
14.032,-0.388,0.096
14.020,-0.363,0.096
14.008,-0.338,0.096
13.997,-0.312,0.096
13.999,-0.287,0.096
14.051,-0.263,0.096
14.103,-0.239,0.097
14.155,-0.215,0.097
14.167,-0.190,0.097
14.155,-0.164,0.097
14.143,-0.139,0.097
14.131,-0.114,0.097
14.120,-0.088,0.097
14.108,-0.063,0.097
14.098,-0.038,0.096
14.102,-0.013,0.097
14.112,0.013,0.097
14.121,0.038,0.097
14.130,0.063,0.097
14.111,0.088,0.097
14.077,0.113,0.096
14.086,0.138,0.096
14.095,0.164,0.096
14.104,0.189,0.097
14.114,0.214,0.097
14.195,0.241,0.097
14.204,0.266,0.097
14.213,0.292,0.097
14.223,0.317,0.097
14.190,0.342,0.097
14.148,0.366,0.097
14.155,0.392,0.097
14.164,0.417,0.097
14.173,0.443,0.097
14.183,0.469,0.097
14.192,0.494,0.097
14.201,0.520,0.097
14.211,0.546,0.097
14.316,0.575,0.098
14.331,0.602,0.098
14.366,0.629,0.098
14.354,0.654,0.098
14.342,0.679,0.098
14.334,0.704,0.098
14.384,0.733,0.099
14.446,0.762,0.099
14.497,0.790,0.099
14.490,0.816,0.099
14.491,0.842,0.099
14.553,0.872,0.100
14.618,0.902,0.100
14.831,0.941,0.102
15.063,0.983,0.103
15.089,-0.931,0.145
15.076,-0.903,0.145
14.495,-0.842,0.139
14.417,-0.812,0.138
14.418,-0.786,0.138
14.427,-0.761,0.138
14.436,-0.735,0.139
14.446,-0.710,0.139
14.455,-0.684,0.139
14.403,-0.656,0.138
14.372,-0.629,0.138
14.360,-0.603,0.138
14.347,-0.577,0.138
14.335,-0.551,0.137
14.323,-0.524,0.137
14.176,-0.494,0.136
14.163,-0.468,0.136
14.151,-0.442,0.136
14.139,-0.417,0.136
14.127,-0.391,0.135
14.115,-0.366,0.135
14.103,-0.340,0.135
14.091,-0.315,0.135
14.079,-0.289,0.135
14.097,-0.264,0.135
14.129,-0.240,0.135
14.157,-0.215,0.136
14.167,-0.190,0.136
14.155,-0.164,0.136
14.143,-0.139,0.136
14.131,-0.114,0.135
14.120,-0.088,0.135
14.108,-0.063,0.135
14.098,-0.038,0.135
14.102,-0.013,0.135
14.112,0.013,0.135
14.121,0.038,0.135
14.130,0.063,0.135
14.111,0.088,0.135
14.077,0.113,0.135
14.086,0.138,0.135
14.095,0.164,0.135
14.104,0.189,0.135
14.114,0.214,0.135
14.195,0.241,0.136
14.204,0.266,0.136
14.213,0.292,0.136
14.223,0.317,0.136
14.190,0.342,0.136
14.148,0.366,0.136
14.155,0.392,0.136
14.164,0.417,0.136
14.173,0.443,0.136
14.183,0.469,0.136
14.192,0.494,0.136
14.201,0.520,0.136
14.211,0.546,0.136
14.316,0.575,0.137
14.331,0.602,0.137
14.366,0.629,0.138
14.354,0.654,0.138
14.342,0.679,0.138
14.334,0.704,0.138
14.384,0.733,0.138
14.446,0.762,0.139
14.497,0.790,0.139
14.490,0.816,0.139
14.491,0.842,0.139
14.553,0.872,0.140
14.618,0.902,0.140
14.831,0.941,0.142
15.063,0.983,0.145
15.089,-0.931,0.186
15.076,-0.903,0.186
14.495,-0.842,0.179
14.417,-0.812,0.178
14.418,-0.786,0.178
14.427,-0.761,0.178
14.436,-0.735,0.178
14.446,-0.710,0.178
14.455,-0.684,0.178
14.403,-0.656,0.178
14.372,-0.629,0.177
14.360,-0.603,0.177
14.347,-0.577,0.177
14.335,-0.551,0.177
14.323,-0.524,0.177
14.311,-0.498,0.176
14.216,-0.470,0.175
14.203,-0.444,0.175
14.191,-0.418,0.175
14.179,-0.393,0.175
14.167,-0.367,0.175
14.155,-0.341,0.174
14.143,-0.316,0.174
14.130,-0.290,0.174
14.120,-0.265,0.174
14.149,-0.240,0.174
14.179,-0.215,0.175
14.167,-0.190,0.175
14.155,-0.164,0.174
14.143,-0.139,0.174
14.131,-0.114,0.174
14.120,-0.088,0.174
14.108,-0.063,0.174
14.098,-0.038,0.174
14.102,-0.013,0.174
14.112,0.013,0.174
14.121,0.038,0.174
14.130,0.063,0.174
14.111,0.088,0.174
14.077,0.113,0.173
14.086,0.138,0.174
14.095,0.164,0.174
14.104,0.189,0.174
14.114,0.214,0.174
14.195,0.241,0.175
14.204,0.266,0.175
14.213,0.292,0.175
14.223,0.317,0.175
14.190,0.342,0.175
14.148,0.366,0.174
14.155,0.392,0.174
14.164,0.417,0.175
14.173,0.443,0.175
14.183,0.469,0.175
14.192,0.494,0.175
14.201,0.520,0.175
14.211,0.546,0.175
14.316,0.575,0.177
14.331,0.602,0.177
14.366,0.629,0.177
14.354,0.654,0.177
14.342,0.679,0.177
14.334,0.704,0.177
14.384,0.733,0.177
14.446,0.762,0.178
14.497,0.790,0.179
14.490,0.816,0.179
14.491,0.842,0.179
14.553,0.872,0.180
14.618,0.902,0.180
14.831,0.941,0.183
15.063,0.983,0.186
15.089,-0.931,0.228
14.831,-0.888,0.224
14.495,-0.842,0.219
14.417,-0.812,0.217
14.418,-0.786,0.217
14.427,-0.761,0.218
14.436,-0.735,0.218
14.446,-0.710,0.218
14.455,-0.684,0.218
14.403,-0.656,0.217
14.372,-0.629,0.217
14.360,-0.603,0.216
14.347,-0.577,0.216
14.335,-0.551,0.216
14.323,-0.524,0.216
14.311,-0.498,0.216
14.299,-0.472,0.215
14.256,-0.446,0.215
14.244,-0.420,0.215
14.231,-0.394,0.214
14.219,-0.368,0.214
14.207,-0.343,0.214
14.195,-0.317,0.214
14.183,-0.291,0.214
14.170,-0.266,0.213
14.163,-0.240,0.213
14.179,-0.215,0.214
14.167,-0.190,0.213
14.155,-0.164,0.213
14.143,-0.139,0.213
14.131,-0.114,0.213
14.120,-0.088,0.213
14.108,-0.063,0.212
14.098,-0.038,0.212
14.102,-0.013,0.212
14.112,0.013,0.213
14.121,0.038,0.213
14.130,0.063,0.213
14.111,0.088,0.212
14.077,0.113,0.212
14.086,0.138,0.212
14.095,0.164,0.212
14.104,0.189,0.212
14.114,0.214,0.213
14.195,0.241,0.214
14.204,0.266,0.214
14.213,0.292,0.214
14.223,0.317,0.214
14.190,0.342,0.214
14.148,0.366,0.213
14.155,0.392,0.213
14.164,0.417,0.213
14.173,0.443,0.214
14.183,0.469,0.214
14.192,0.494,0.214
14.201,0.520,0.214
14.211,0.546,0.214
14.316,0.575,0.216
14.331,0.602,0.216
14.366,0.629,0.217
14.354,0.654,0.216
14.342,0.679,0.216
14.334,0.704,0.216
14.384,0.733,0.217
14.446,0.762,0.218
14.497,0.790,0.219
14.490,0.816,0.219
14.491,0.842,0.219
14.553,0.872,0.220
14.618,0.902,0.221
14.831,0.941,0.224
15.063,0.983,0.227
15.089,-0.931,0.269
14.820,-0.888,0.264
14.495,-0.842,0.258
14.417,-0.812,0.257
14.418,-0.786,0.257
14.427,-0.761,0.257
14.436,-0.735,0.257
14.446,-0.710,0.257
14.455,-0.684,0.258
14.403,-0.656,0.257
14.372,-0.629,0.256
14.360,-0.603,0.256
14.347,-0.577,0.256
14.335,-0.551,0.255
14.323,-0.524,0.255
14.311,-0.498,0.255
14.299,-0.472,0.255
14.287,-0.447,0.254
14.275,-0.421,0.254
14.262,-0.395,0.254
14.250,-0.369,0.254
14.238,-0.343,0.253
14.226,-0.318,0.253
14.215,-0.292,0.253
14.203,-0.266,0.253
14.191,-0.241,0.253
14.179,-0.215,0.252
14.167,-0.190,0.252
14.155,-0.164,0.252
14.143,-0.139,0.252
14.131,-0.114,0.252
14.120,-0.088,0.251
14.108,-0.063,0.251
14.098,-0.038,0.251
14.102,-0.013,0.251
14.112,0.013,0.251
14.121,0.038,0.251
14.130,0.063,0.251
14.111,0.088,0.251
14.077,0.113,0.251
14.086,0.138,0.251
14.095,0.164,0.251
14.104,0.189,0.251
14.114,0.214,0.251
14.195,0.241,0.253
14.204,0.266,0.253
14.213,0.292,0.253
14.223,0.317,0.253
14.190,0.342,0.253
14.148,0.366,0.252
14.155,0.392,0.252
14.164,0.417,0.252
14.173,0.443,0.252
14.183,0.469,0.253
14.192,0.494,0.253
14.201,0.520,0.253
14.211,0.546,0.253
14.316,0.575,0.255
14.331,0.602,0.255
14.366,0.629,0.256
14.354,0.654,0.256
14.342,0.679,0.256
14.334,0.704,0.255
14.384,0.733,0.256
14.446,0.762,0.257
14.497,0.790,0.258
14.490,0.816,0.258
14.491,0.842,0.258
14.553,0.872,0.259
14.618,0.902,0.261
14.831,0.941,0.264
15.063,0.983,0.269
15.089,-0.931,0.310
14.820,-0.888,0.305
14.495,-0.842,0.298
14.417,-0.812,0.297
14.418,-0.786,0.297
14.427,-0.761,0.297
14.436,-0.735,0.297
14.446,-0.710,0.297
14.455,-0.684,0.297
14.403,-0.656,0.296
14.372,-0.629,0.295
14.360,-0.603,0.295
14.347,-0.577,0.295
14.335,-0.551,0.295
14.323,-0.524,0.294
14.311,-0.498,0.294
14.299,-0.472,0.294
14.287,-0.447,0.294
14.275,-0.421,0.293
14.262,-0.395,0.293
14.250,-0.369,0.293
14.238,-0.343,0.292
14.226,-0.318,0.292
14.215,-0.292,0.292
14.203,-0.266,0.292
14.191,-0.241,0.291
14.179,-0.215,0.291
14.167,-0.190,0.291
14.155,-0.164,0.291
14.143,-0.139,0.290
14.131,-0.114,0.290
14.120,-0.088,0.290
14.108,-0.063,0.290
14.098,-0.038,0.290
14.102,-0.013,0.290
14.112,0.013,0.290
14.121,0.038,0.290
14.130,0.063,0.290
14.111,0.088,0.290
14.077,0.113,0.289
14.086,0.138,0.289
14.095,0.164,0.289
14.104,0.189,0.290
14.114,0.214,0.290
14.195,0.241,0.292
14.204,0.266,0.292
14.213,0.292,0.292
14.223,0.317,0.292
14.232,0.343,0.292
14.241,0.369,0.293
14.251,0.394,0.293
14.260,0.420,0.293
14.269,0.446,0.293
14.279,0.472,0.293
14.288,0.498,0.294
14.298,0.524,0.294
14.307,0.549,0.294
14.316,0.575,0.294
14.331,0.602,0.295
14.366,0.629,0.295
14.354,0.654,0.295
14.342,0.679,0.295
14.334,0.704,0.295
14.384,0.733,0.296
14.446,0.762,0.297
14.497,0.790,0.298
14.490,0.816,0.298
14.491,0.842,0.298
14.553,0.872,0.299
14.618,0.902,0.301
14.831,0.941,0.305
15.063,0.983,0.310
15.090,-0.931,0.352
14.820,-0.888,0.346
14.495,-0.842,0.338
14.417,-0.812,0.336
14.418,-0.786,0.336
14.427,-0.761,0.336
14.436,-0.735,0.336
14.446,-0.710,0.337
14.455,-0.684,0.337
14.403,-0.656,0.336
14.372,-0.629,0.335
14.360,-0.603,0.335
14.347,-0.577,0.334
14.335,-0.551,0.334
14.323,-0.524,0.334
14.311,-0.498,0.333
14.299,-0.472,0.333
14.287,-0.447,0.333
14.275,-0.421,0.332
14.262,-0.395,0.332
14.250,-0.369,0.332
14.238,-0.343,0.332
14.226,-0.318,0.331
14.215,-0.292,0.331
14.203,-0.266,0.331
14.191,-0.241,0.330
14.179,-0.215,0.330
14.167,-0.190,0.330
14.155,-0.164,0.329
14.143,-0.139,0.329
14.131,-0.114,0.329
14.120,-0.088,0.329
14.108,-0.063,0.328
14.098,-0.038,0.328
14.102,-0.013,0.328
14.112,0.013,0.328
14.121,0.038,0.329
14.130,0.063,0.329
14.111,0.088,0.328
14.077,0.113,0.328
14.086,0.138,0.328
14.095,0.164,0.328
14.104,0.189,0.328
14.114,0.214,0.329
14.195,0.241,0.330
14.204,0.266,0.331
14.213,0.292,0.331
14.223,0.317,0.331
14.232,0.343,0.331
14.241,0.369,0.332
14.251,0.394,0.332
14.260,0.420,0.332
14.269,0.446,0.332
14.279,0.472,0.333
14.288,0.498,0.333
14.298,0.524,0.333
14.307,0.549,0.333
14.316,0.575,0.333
14.331,0.602,0.334
14.366,0.629,0.335
14.354,0.654,0.334
14.342,0.679,0.334
14.334,0.704,0.334
14.384,0.733,0.335
14.446,0.762,0.337
14.500,0.790,0.338
14.493,0.816,0.338
14.498,0.842,0.338
14.564,0.872,0.340
14.640,0.903,0.341
14.831,0.941,0.346
15.063,0.983,0.351
14.495,-0.842,0.378
14.417,-0.812,0.376
14.418,-0.786,0.376
14.427,-0.761,0.376
14.436,-0.735,0.376
14.446,-0.710,0.376
14.455,-0.684,0.376
14.403,-0.656,0.375
14.372,-0.629,0.374
14.360,-0.603,0.374
14.347,-0.577,0.374
14.335,-0.551,0.373
14.323,-0.524,0.373
14.311,-0.498,0.373
14.299,-0.472,0.372
14.287,-0.447,0.372
14.275,-0.421,0.372
14.262,-0.395,0.371
14.250,-0.369,0.371
14.238,-0.343,0.371
14.226,-0.318,0.370
14.215,-0.292,0.370
14.203,-0.266,0.370
14.191,-0.241,0.369
14.179,-0.215,0.369
14.167,-0.190,0.369
14.155,-0.164,0.368
14.143,-0.139,0.368
14.131,-0.114,0.368
14.120,-0.088,0.367
14.108,-0.063,0.367
14.098,-0.038,0.367
14.102,-0.013,0.367
14.112,0.013,0.367
14.121,0.038,0.367
14.130,0.063,0.368
14.139,0.088,0.368
14.148,0.114,0.368
14.158,0.139,0.368
14.167,0.164,0.369
14.176,0.190,0.369
14.185,0.215,0.369
14.195,0.241,0.369
14.204,0.266,0.370
14.213,0.292,0.370
14.223,0.317,0.370
14.232,0.343,0.370
14.241,0.369,0.371
14.251,0.394,0.371
14.260,0.420,0.371
14.269,0.446,0.371
14.279,0.472,0.372
14.288,0.498,0.372
14.298,0.524,0.372
14.307,0.549,0.372
14.316,0.575,0.373
14.331,0.602,0.373
14.386,0.630,0.375
14.447,0.658,0.376
14.509,0.687,0.378
14.571,0.716,0.380
14.634,0.745,0.381
14.697,0.775,0.383
14.761,0.805,0.385
14.826,0.835,0.386
14.891,0.865,0.388
15.031,0.900,0.392
15.041,0.928,0.392
15.051,0.955,0.392
15.063,0.983,0.393
14.519,-0.843,0.418
14.422,-0.812,0.415
14.421,-0.786,0.415
14.431,-0.761,0.416
14.440,-0.735,0.416
14.449,-0.710,0.416
14.459,-0.685,0.416
14.403,-0.656,0.415
14.372,-0.629,0.414
14.360,-0.603,0.413
14.347,-0.577,0.413
14.335,-0.551,0.413
14.323,-0.524,0.412
14.311,-0.498,0.412
14.299,-0.472,0.411
14.287,-0.447,0.411
14.275,-0.421,0.411
14.262,-0.395,0.410
14.250,-0.369,0.410
14.238,-0.343,0.410
14.226,-0.318,0.409
14.215,-0.292,0.409
14.203,-0.266,0.408
14.191,-0.241,0.408
14.179,-0.215,0.408
14.167,-0.190,0.407
14.155,-0.164,0.407
14.143,-0.139,0.407
14.131,-0.114,0.406
14.120,-0.088,0.406
14.108,-0.063,0.406
14.098,-0.038,0.405
14.102,-0.013,0.406
14.112,0.013,0.406
14.121,0.038,0.406
14.130,0.063,0.406
14.139,0.088,0.407
14.148,0.114,0.407
14.158,0.139,0.407
14.134,0.164,0.406
14.176,0.190,0.408
14.185,0.215,0.408
14.195,0.241,0.408
14.204,0.266,0.409
14.213,0.292,0.409
14.223,0.317,0.409
14.232,0.343,0.409
14.241,0.369,0.410
14.251,0.394,0.410
14.210,0.419,0.409
14.269,0.446,0.411
14.279,0.472,0.411
14.288,0.498,0.411
14.298,0.524,0.411
14.307,0.549,0.412
14.316,0.575,0.412
14.331,0.602,0.412
14.386,0.630,0.414
14.447,0.658,0.416
14.509,0.687,0.418
14.571,0.716,0.419
14.634,0.745,0.421
14.697,0.775,0.423
14.761,0.805,0.425
14.826,0.835,0.427
14.891,0.865,0.429
14.978,-0.897,0.473
14.956,-0.869,0.472
14.905,-0.839,0.470
14.819,-0.808,0.467
14.734,-0.777,0.465
14.650,-0.746,0.462
14.566,-0.716,0.459
14.484,-0.686,0.457
14.403,-0.656,0.454
14.372,-0.629,0.453
14.360,-0.603,0.453
14.347,-0.577,0.452
14.335,-0.551,0.452
14.323,-0.524,0.451
14.311,-0.498,0.451
14.299,-0.472,0.451
14.287,-0.447,0.450
14.275,-0.421,0.450
14.262,-0.395,0.449
14.250,-0.369,0.449
14.238,-0.343,0.449
14.226,-0.318,0.448
14.215,-0.292,0.448
14.203,-0.266,0.447
14.191,-0.241,0.447
14.179,-0.215,0.447
14.167,-0.190,0.446
14.155,-0.164,0.446
14.143,-0.139,0.445
14.131,-0.114,0.445
14.120,-0.088,0.445
14.108,-0.063,0.444
14.098,-0.038,0.444
14.102,-0.013,0.444
14.112,0.013,0.444
14.121,0.038,0.445
14.130,0.063,0.445
14.139,0.088,0.445
14.148,0.114,0.446
14.158,0.139,0.446
14.167,0.164,0.446
14.176,0.190,0.447
14.185,0.215,0.447
14.195,0.241,0.447
14.204,0.266,0.447
14.213,0.292,0.448
14.223,0.317,0.448
14.232,0.343,0.448
14.241,0.369,0.449
14.251,0.394,0.449
14.260,0.420,0.449
14.269,0.446,0.450
14.279,0.472,0.450
14.288,0.498,0.450
14.298,0.524,0.451
14.307,0.549,0.451
14.316,0.575,0.451
14.331,0.602,0.452
14.386,0.630,0.454
14.447,0.658,0.455
14.509,0.687,0.457
14.571,0.716,0.459
14.634,0.745,0.461
14.697,0.775,0.464
14.761,0.805,0.466
14.826,0.835,0.468
14.891,0.865,0.470
14.974,0.897,0.472
15.000,0.925,0.473
15.033,0.954,0.474
14.631,-0.902,0.502
14.635,-0.876,0.502
14.640,-0.850,0.502
14.645,-0.825,0.502
14.355,-0.783,0.492
14.365,-0.757,0.492
14.375,-0.732,0.493
14.385,-0.707,0.493
14.394,-0.682,0.493
14.403,-0.656,0.494
14.372,-0.629,0.492
14.360,-0.603,0.492
14.347,-0.577,0.492
14.335,-0.551,0.491
14.323,-0.524,0.491
14.311,-0.498,0.490
14.299,-0.472,0.490
14.287,-0.447,0.489
14.275,-0.421,0.489
14.262,-0.395,0.488
14.250,-0.369,0.488
14.238,-0.343,0.488
14.226,-0.318,0.487
14.215,-0.292,0.487
14.203,-0.266,0.486
14.191,-0.241,0.486
14.179,-0.215,0.485
14.167,-0.190,0.485
14.155,-0.164,0.485
14.143,-0.139,0.484
14.131,-0.114,0.484
14.120,-0.088,0.483
14.108,-0.063,0.483
14.098,-0.038,0.483
14.102,-0.013,0.483
14.033,0.013,0.480
13.970,0.037,0.478
13.973,0.062,0.478
14.139,0.088,0.484
14.148,0.114,0.484
14.158,0.139,0.485
14.167,0.164,0.485
14.176,0.190,0.485
14.185,0.215,0.486
14.195,0.241,0.486
14.159,0.265,0.485
14.114,0.290,0.483
14.070,0.314,0.482
14.065,0.339,0.482
14.241,0.369,0.488
14.251,0.394,0.488
14.260,0.420,0.488
14.269,0.446,0.489
14.279,0.472,0.489
14.288,0.498,0.489
14.265,0.522,0.489
14.234,0.547,0.488
14.204,0.571,0.487
14.174,0.595,0.486
14.180,0.621,0.486
14.447,0.658,0.495
14.509,0.687,0.497
14.571,0.716,0.499
14.634,0.745,0.502
14.697,0.775,0.504
14.761,0.805,0.506
14.826,0.835,0.508
14.891,0.865,0.511
14.842,-0.782,0.550
14.693,-0.748,0.544
14.642,-0.719,0.542
14.591,-0.691,0.540
14.541,-0.663,0.538
14.491,-0.634,0.536
14.462,-0.607,0.535
14.438,-0.580,0.534
14.413,-0.554,0.533
14.388,-0.527,0.532
14.364,-0.500,0.531
14.340,-0.474,0.531
14.315,-0.447,0.530
14.302,-0.421,0.529
14.290,-0.396,0.529
14.278,-0.370,0.528
14.266,-0.344,0.528
14.241,-0.318,0.527
14.228,-0.292,0.526
14.214,-0.267,0.526
14.201,-0.241,0.525
14.188,-0.215,0.525
14.175,-0.190,0.524
14.161,-0.164,0.524
14.148,-0.139,0.523
14.136,-0.114,0.523
14.124,-0.088,0.522
14.112,-0.063,0.522
14.100,-0.038,0.521
14.106,-0.013,0.522
14.115,0.013,0.522
14.125,0.038,0.522
14.134,0.063,0.523
14.143,0.088,0.523
14.154,0.114,0.523
14.164,0.139,0.524
14.174,0.165,0.524
14.184,0.190,0.525
14.195,0.215,0.525
14.205,0.241,0.525
14.215,0.267,0.526
14.226,0.292,0.526
14.236,0.318,0.527
14.261,0.344,0.527
14.275,0.370,0.528
14.289,0.396,0.529
14.303,0.422,0.529
14.318,0.448,0.530
14.332,0.474,0.530
14.347,0.500,0.531
14.375,0.526,0.532
14.403,0.553,0.533
14.432,0.580,0.534
14.460,0.607,0.535
14.489,0.634,0.536
14.518,0.661,0.537
14.567,0.690,0.539
14.628,0.719,0.542
14.689,0.748,0.544
14.751,0.778,0.546
14.945,-0.815,0.594
14.770,-0.779,0.587
14.669,-0.747,0.583
14.618,-0.718,0.581
14.568,-0.690,0.579
14.518,-0.661,0.577
14.472,-0.633,0.575
14.447,-0.607,0.574
14.423,-0.580,0.573
14.398,-0.553,0.572
14.374,-0.526,0.571
14.349,-0.500,0.570
14.325,-0.473,0.569
14.303,-0.447,0.568
14.291,-0.421,0.568
14.279,-0.395,0.567
14.267,-0.369,0.567
14.255,-0.344,0.566
14.243,-0.318,0.566
14.231,-0.292,0.565
14.219,-0.267,0.565
14.208,-0.241,0.564
14.197,-0.215,0.564
14.194,-0.190,0.564
14.191,-0.165,0.564
14.188,-0.139,0.564
14.185,-0.114,0.563
14.182,-0.089,0.563
14.179,-0.063,0.563
14.176,-0.038,0.563
14.173,-0.013,0.563
14.170,0.013,0.563
14.168,0.038,0.563
14.173,0.063,0.563
14.178,0.089,0.563
14.183,0.114,0.563
14.188,0.139,0.564
14.193,0.165,0.564
14.198,0.190,0.564
14.202,0.216,0.564
14.207,0.241,0.564
14.212,0.266,0.565
14.221,0.292,0.565
14.235,0.318,0.566
14.249,0.344,0.566
14.263,0.369,0.567
14.277,0.395,0.567
14.291,0.421,0.568
14.306,0.447,0.568
14.320,0.473,0.569
14.334,0.499,0.570
14.359,0.526,0.571
14.388,0.553,0.572
14.416,0.579,0.573
14.444,0.606,0.574
14.473,0.634,0.575
14.502,0.661,0.577
14.539,0.688,0.578
14.600,0.717,0.581
14.661,0.747,0.583
14.723,0.776,0.586
14.926,0.814,0.594
14.872,-0.811,0.632
14.698,-0.775,0.625
14.645,-0.746,0.623
14.594,-0.717,0.620
14.544,-0.689,0.618
14.494,-0.660,0.616
14.457,-0.633,0.614
14.433,-0.606,0.613
14.408,-0.579,0.612
14.384,-0.552,0.611
14.359,-0.526,0.610
14.335,-0.499,0.609
14.311,-0.473,0.608
14.291,-0.447,0.607
14.279,-0.421,0.607
14.267,-0.395,0.606
14.255,-0.369,0.605
14.244,-0.343,0.605
14.232,-0.318,0.604
14.220,-0.292,0.604
14.208,-0.266,0.603
14.196,-0.241,0.603
14.187,-0.215,0.602
14.184,-0.190,0.602
14.181,-0.165,0.602
14.178,-0.139,0.602
14.175,-0.114,0.602
14.172,-0.089,0.602
14.169,-0.063,0.602
14.165,-0.038,0.601
14.162,-0.013,0.601
14.159,0.013,0.601
14.158,0.038,0.601
14.163,0.063,0.601
14.168,0.089,0.602
14.172,0.114,0.602
14.177,0.139,0.602
14.182,0.165,0.602
14.187,0.190,0.602
14.192,0.215,0.603
14.197,0.241,0.603
14.202,0.266,0.603
14.209,0.292,0.603
14.223,0.317,0.604
14.237,0.343,0.605
14.251,0.369,0.605
14.265,0.395,0.606
14.279,0.421,0.607
14.294,0.447,0.607
14.308,0.473,0.608
14.322,0.499,0.609
14.344,0.525,0.609
14.372,0.552,0.611
14.400,0.579,0.612
14.428,0.606,0.613
14.457,0.633,0.614
14.486,0.660,0.616
14.514,0.687,0.617
14.573,0.716,0.620
14.634,0.745,0.622
14.695,0.775,0.625
14.788,0.806,0.629
14.799,-0.807,0.670
14.672,-0.774,0.664
14.621,-0.745,0.662
14.571,-0.716,0.659
14.521,-0.688,0.657
14.471,-0.659,0.655
14.443,-0.632,0.653
14.418,-0.605,0.652
14.393,-0.579,0.651
14.369,-0.552,0.650
14.345,-0.525,0.649
14.320,-0.499,0.648
14.296,-0.472,0.647
14.280,-0.446,0.646
14.268,-0.420,0.645
14.256,-0.395,0.645
14.244,-0.369,0.644
14.232,-0.343,0.644
14.220,-0.317,0.643
14.208,-0.292,0.642
14.197,-0.266,0.642
14.185,-0.241,0.641
14.177,-0.215,0.641
14.174,-0.190,0.641
14.171,-0.164,0.641
14.167,-0.139,0.640
14.164,-0.114,0.640
14.161,-0.088,0.640
14.158,-0.063,0.640
14.155,-0.038,0.640
14.152,-0.013,0.640
14.149,0.013,0.640
14.147,0.038,0.640
14.152,0.063,0.640
14.157,0.088,0.640
14.162,0.114,0.640
14.167,0.139,0.640
14.172,0.164,0.641
14.177,0.190,0.641
14.182,0.215,0.641
14.186,0.241,0.641
14.191,0.266,0.642
14.197,0.292,0.642
14.211,0.317,0.643
14.225,0.343,0.643
14.239,0.369,0.644
14.253,0.395,0.645
14.268,0.420,0.645
14.282,0.446,0.646
14.296,0.472,0.647
14.310,0.498,0.647
14.328,0.525,0.648
14.356,0.551,0.649
14.384,0.578,0.651
14.413,0.605,0.652
14.441,0.632,0.653
14.470,0.659,0.655
14.498,0.687,0.656
14.545,0.715,0.658
14.606,0.744,0.661
14.667,0.773,0.664
14.729,0.803,0.667
14.987,0.844,0.679
14.901,-0.839,0.716
14.727,-0.803,0.707
14.648,-0.772,0.703
14.598,-0.743,0.701
14.548,-0.715,0.698
14.498,-0.686,0.696
14.453,-0.658,0.694
14.428,-0.632,0.692
14.403,-0.605,0.691
14.379,-0.578,0.690
14.354,-0.551,0.689
14.330,-0.525,0.688
14.306,-0.498,0.686
14.282,-0.472,0.685
14.268,-0.446,0.684
14.256,-0.420,0.684
14.244,-0.394,0.683
14.232,-0.369,0.683
14.221,-0.343,0.682
14.209,-0.317,0.681
14.197,-0.292,0.681
14.185,-0.266,0.680
14.174,-0.240,0.680
14.166,-0.215,0.679
14.163,-0.190,0.679
14.160,-0.164,0.679
14.157,-0.139,0.679
14.154,-0.114,0.679
14.151,-0.088,0.679
14.148,-0.063,0.678
14.145,-0.038,0.678
14.142,-0.013,0.678
14.139,0.013,0.678
14.137,0.038,0.678
14.142,0.063,0.678
14.147,0.088,0.678
14.152,0.114,0.679
14.157,0.139,0.679
14.161,0.164,0.679
14.166,0.190,0.679
14.171,0.215,0.680
14.176,0.240,0.680
14.181,0.266,0.680
14.186,0.291,0.680
14.199,0.317,0.681
14.213,0.343,0.682
14.227,0.368,0.682
14.241,0.394,0.683
14.256,0.420,0.684
14.270,0.446,0.685
14.284,0.472,0.685
14.298,0.498,0.686
14.312,0.524,0.687
14.340,0.551,0.688
14.368,0.578,0.689
14.397,0.604,0.691
14.425,0.631,0.692
14.454,0.659,0.694
14.482,0.686,0.695
14.518,0.713,0.697
14.579,0.743,0.700
14.640,0.772,0.703
14.701,0.801,0.706
14.848,0.836,0.713
14.844,-0.836,0.754
14.676,-0.800,0.745
14.625,-0.771,0.742
14.574,-0.742,0.740
14.524,-0.714,0.737
14.474,-0.685,0.735
14.438,-0.658,0.733
14.413,-0.631,0.731
14.389,-0.604,0.730
14.364,-0.577,0.729
14.340,-0.551,0.727
14.316,-0.524,0.726
14.291,-0.498,0.725
14.268,-0.471,0.724
14.257,-0.446,0.723
14.245,-0.420,0.722
14.233,-0.394,0.722
14.221,-0.368,0.721
14.209,-0.343,0.721
14.197,-0.317,0.720
14.186,-0.291,0.719
14.174,-0.266,0.719
14.162,-0.240,0.718
14.156,-0.215,0.718
14.153,-0.190,0.718
14.150,-0.164,0.717
14.147,-0.139,0.717
14.144,-0.114,0.717
14.141,-0.088,0.717
14.138,-0.063,0.717
14.135,-0.038,0.717
14.132,-0.013,0.716
14.129,0.013,0.716
14.127,0.038,0.716
14.132,0.063,0.716
14.136,0.088,0.717
14.141,0.114,0.717
14.146,0.139,0.717
14.151,0.164,0.717
14.156,0.190,0.718
14.161,0.215,0.718
14.166,0.240,0.718
14.170,0.266,0.718
14.175,0.291,0.719
14.187,0.317,0.719
14.201,0.342,0.720
14.216,0.368,0.721
14.230,0.394,0.722
14.244,0.420,0.722
14.258,0.446,0.723
14.272,0.472,0.724
14.286,0.498,0.725
14.300,0.524,0.725
14.325,0.550,0.727
14.353,0.577,0.728
14.381,0.604,0.730
14.409,0.631,0.731
14.438,0.658,0.733
14.466,0.685,0.734
14.495,0.712,0.736
14.551,0.741,0.739
14.612,0.770,0.742
14.674,0.800,0.745
14.738,0.830,0.748
14.753,-0.672,0.789
14.749,-0.646,0.789
14.288,-0.498,0.764
14.264,-0.471,0.763
14.251,-0.445,0.762
14.238,-0.420,0.761
14.226,-0.394,0.760
14.214,-0.368,0.760
14.202,-0.342,0.759
14.190,-0.317,0.758
14.178,-0.291,0.758
14.166,-0.266,0.757
14.154,-0.240,0.756
14.149,-0.215,0.756
14.146,-0.189,0.756
14.143,-0.164,0.756
14.139,-0.139,0.756
14.136,-0.114,0.755
14.133,-0.088,0.755
14.130,-0.063,0.755
14.127,-0.038,0.755
14.124,-0.013,0.755
14.121,0.013,0.755
14.119,0.038,0.754
14.124,0.063,0.755
14.129,0.088,0.755
14.134,0.114,0.755
14.139,0.139,0.756
14.143,0.164,0.756
14.148,0.189,0.756
14.153,0.215,0.756
14.158,0.240,0.757
14.163,0.266,0.757
14.168,0.291,0.757
14.180,0.317,0.758
14.194,0.342,0.759
14.208,0.368,0.759
14.222,0.394,0.760
14.237,0.420,0.761
14.252,0.445,0.762
14.268,0.471,0.763
14.283,0.497,0.764
14.298,0.524,0.765
15.228,0.612,0.814
15.218,0.639,0.814
15.241,0.667,0.815
14.753,-0.672,0.830
14.749,-0.646,0.829
15.025,-0.174,0.844
14.811,0.066,0.832
15.228,0.612,0.856
15.218,0.639,0.856
15.241,0.667,0.857
14.753,-0.672,0.870
14.749,-0.646,0.870
15.015,-0.121,0.885
14.972,-0.013,0.882
14.973,0.013,0.882
14.872,0.040,0.876
15.082,0.067,0.889
15.228,0.612,0.898
15.218,0.639,0.898
15.241,0.667,0.899
14.753,-0.672,0.911
14.749,-0.646,0.911
14.992,-0.067,0.925
14.966,-0.040,0.923
14.944,-0.013,0.922
14.928,0.013,0.921
14.949,0.040,0.922
15.228,0.612,0.940
15.218,0.639,0.939
15.241,0.667,0.941
14.753,-0.672,0.952
14.749,-0.646,0.951
14.981,-0.013,0.965
14.970,0.013,0.964
15.228,0.612,0.982
15.218,0.639,0.981
15.241,0.667,0.983
14.753,-0.672,0.992
14.749,-0.646,0.992
15.228,0.612,1.024
15.218,0.639,1.023
15.241,0.667,1.025
14.753,-0.672,1.033
14.749,-0.646,1.032
15.228,0.612,1.066
15.218,0.639,1.065
15.241,0.667,1.067
14.753,-0.672,1.073
14.749,-0.646,1.073
15.228,0.612,1.108
15.218,0.639,1.107
15.241,0.667,1.109
14.753,-0.672,1.114
14.749,-0.646,1.114
