14.787,-0.674,-0.710
14.794,-0.648,-0.710
15.041,0.658,-0.722
15.027,0.685,-0.721
15.044,0.712,-0.722
14.787,-0.674,-0.669
14.794,-0.648,-0.669
15.038,0.658,-0.680
15.026,0.685,-0.680
15.041,0.712,-0.681
14.787,-0.674,-0.629
14.794,-0.648,-0.629
14.934,-0.333,-0.634
14.900,-0.306,-0.633
14.866,-0.279,-0.631
14.832,-0.252,-0.630
14.802,-0.225,-0.629
14.442,-0.193,-0.613
14.418,-0.167,-0.612
14.394,-0.141,-0.611
14.370,-0.115,-0.610
14.346,-0.090,-0.609
14.323,-0.064,-0.608
14.313,-0.038,-0.608
15.038,0.658,-0.639
15.026,0.685,-0.639
15.041,0.712,-0.639
14.787,-0.674,-0.588
14.794,-0.648,-0.588
14.925,-0.360,-0.593
14.891,-0.332,-0.592
14.857,-0.305,-0.590
14.823,-0.278,-0.589
14.789,-0.251,-0.588
14.444,-0.219,-0.574
14.420,-0.193,-0.573
14.396,-0.167,-0.572
14.372,-0.141,-0.571
14.348,-0.115,-0.570
14.324,-0.090,-0.569
14.302,-0.064,-0.568
14.309,-0.038,-0.568
14.337,-0.013,-0.569
14.368,0.013,-0.571
15.038,0.658,-0.598
15.026,0.685,-0.597
15.041,0.712,-0.598
14.787,-0.674,-0.547
14.794,-0.648,-0.548
14.915,-0.386,-0.552
14.881,-0.359,-0.550
14.847,-0.331,-0.549
14.814,-0.304,-0.548
14.780,-0.277,-0.547
14.747,-0.250,-0.545
14.422,-0.219,-0.533
14.398,-0.193,-0.532
14.374,-0.167,-0.532
14.350,-0.141,-0.531
14.326,-0.115,-0.530
14.303,-0.089,-0.529
14.287,-0.064,-0.528
14.309,-0.038,-0.529
14.337,-0.013,-0.530
14.366,0.013,-0.531
14.394,0.039,-0.532
14.242,0.089,-0.527
14.195,0.114,-0.525
14.202,0.139,-0.525
14.215,0.165,-0.526
15.038,0.658,-0.557
15.026,0.685,-0.556
15.041,0.712,-0.557
14.787,-0.674,-0.507
14.794,-0.648,-0.507
14.872,-0.385,-0.509
14.838,-0.358,-0.508
14.804,-0.330,-0.507
14.771,-0.303,-0.506
14.738,-0.276,-0.505
14.428,-0.245,-0.494
14.399,-0.219,-0.493
14.376,-0.193,-0.492
14.352,-0.167,-0.491
14.328,-0.141,-0.491
14.304,-0.115,-0.490
14.281,-0.089,-0.489
14.281,-0.064,-0.489
14.309,-0.038,-0.490
14.337,-0.013,-0.491
14.366,0.013,-0.492
14.394,0.039,-0.493
14.423,0.064,-0.494
14.242,0.089,-0.488
14.195,0.114,-0.486
14.202,0.139,-0.486
14.215,0.165,-0.487
15.038,0.658,-0.515
15.026,0.685,-0.515
15.041,0.712,-0.516
14.787,-0.674,-0.466
14.794,-0.648,-0.466
14.862,-0.411,-0.468
14.829,-0.384,-0.467
14.795,-0.357,-0.466
14.762,-0.330,-0.465
14.736,-0.303,-0.464
14.695,-0.276,-0.463
14.416,-0.245,-0.454
14.392,-0.218,-0.453
14.369,-0.192,-0.453
14.346,-0.167,-0.452
14.323,-0.141,-0.451
14.300,-0.115,-0.450
14.277,-0.089,-0.450
14.281,-0.064,-0.450
14.309,-0.038,-0.451
14.337,-0.013,-0.452
14.366,0.013,-0.452
14.394,0.039,-0.453
14.423,0.064,-0.454
14.242,0.089,-0.449
14.195,0.114,-0.447
14.202,0.139,-0.447
14.184,0.165,-0.447
15.139,0.203,-0.477
15.119,0.229,-0.476
15.147,0.257,-0.477
15.184,0.285,-0.478
15.221,0.313,-0.479
15.308,0.342,-0.482
15.038,0.658,-0.474
15.026,0.685,-0.474
15.041,0.712,-0.474
14.787,-0.674,-0.426
14.794,-0.648,-0.426
15.571,-0.570,-0.448
15.551,-0.542,-0.447
15.530,-0.513,-0.447
15.519,-0.485,-0.446
14.853,-0.438,-0.427
14.819,-0.410,-0.426
14.786,-0.383,-0.425
14.752,-0.356,-0.424
14.719,-0.329,-0.423
14.686,-0.302,-0.422
14.653,-0.275,-0.421
14.446,-0.245,-0.415
14.405,-0.219,-0.414
14.382,-0.193,-0.414
14.359,-0.167,-0.413
14.336,-0.141,-0.412
14.313,-0.115,-0.412
14.290,-0.089,-0.411
14.283,-0.064,-0.411
14.309,-0.038,-0.411
14.337,-0.013,-0.412
14.366,0.013,-0.413
14.394,0.039,-0.414
14.423,0.064,-0.415
14.250,0.089,-0.410
14.209,0.114,-0.409
14.209,0.140,-0.409
14.225,0.165,-0.409
15.130,0.203,-0.435
15.110,0.229,-0.435
15.147,0.257,-0.436
15.184,0.285,-0.437
15.221,0.313,-0.438
15.259,0.341,-0.439
15.296,0.369,-0.440
15.334,0.397,-0.441
14.314,0.396,-0.412
14.297,0.421,-0.411
14.279,0.446,-0.411
14.262,0.471,-0.410
14.244,0.496,-0.410
14.244,0.522,-0.410
14.282,0.549,-0.411
14.321,0.576,-0.412
14.360,0.603,-0.413
15.038,0.658,-0.433
15.026,0.685,-0.433
15.041,0.712,-0.433
14.787,-0.674,-0.385
14.794,-0.648,-0.385
15.525,-0.596,-0.404
15.509,-0.568,-0.404
15.494,-0.540,-0.403
15.481,-0.512,-0.403
14.844,-0.464,-0.386
14.810,-0.436,-0.385
14.782,-0.409,-0.385
14.743,-0.382,-0.384
14.710,-0.355,-0.383
14.677,-0.328,-0.382
14.644,-0.301,-0.381
14.619,-0.274,-0.380
14.620,-0.248,-0.380
14.418,-0.219,-0.375
14.394,-0.193,-0.374
14.371,-0.167,-0.374
14.348,-0.141,-0.373
14.325,-0.115,-0.373
14.302,-0.089,-0.372
14.287,-0.064,-0.372
14.309,-0.038,-0.372
14.337,-0.013,-0.373
14.366,0.013,-0.374
14.394,0.039,-0.374
14.423,0.064,-0.375
14.452,0.090,-0.376
14.221,0.114,-0.370
14.218,0.140,-0.370
14.539,0.169,-0.378
14.575,0.195,-0.379
15.110,0.229,-0.393
15.147,0.257,-0.394
15.184,0.285,-0.395
15.221,0.313,-0.396
15.259,0.341,-0.397
15.296,0.369,-0.398
15.334,0.397,-0.399
14.314,0.396,-0.373
14.297,0.421,-0.372
14.279,0.446,-0.372
14.262,0.471,-0.371
14.244,0.496,-0.371
14.244,0.522,-0.371
14.282,0.549,-0.372
14.321,0.576,-0.373
14.360,0.603,-0.374
15.038,0.658,-0.392
15.026,0.685,-0.391
15.041,0.712,-0.392
14.787,-0.674,-0.345
14.794,-0.648,-0.345
15.571,-0.626,-0.363
15.551,-0.597,-0.362
15.502,-0.568,-0.361
15.489,-0.540,-0.361
14.834,-0.490,-0.345
14.801,-0.463,-0.345
14.767,-0.435,-0.344
14.734,-0.408,-0.343
14.701,-0.381,-0.342
14.668,-0.354,-0.341
14.635,-0.327,-0.341
14.605,-0.300,-0.340
14.599,-0.274,-0.340
14.620,-0.248,-0.340
14.430,-0.219,-0.336
14.407,-0.193,-0.335
14.384,-0.167,-0.335
14.361,-0.141,-0.334
14.337,-0.115,-0.334
14.314,-0.089,-0.333
14.295,-0.064,-0.333
14.309,-0.038,-0.333
14.337,-0.013,-0.334
14.366,0.013,-0.334
14.394,0.039,-0.335
14.423,0.064,-0.336
14.452,0.090,-0.336
14.221,0.114,-0.331
14.218,0.140,-0.331
14.539,0.169,-0.338
14.568,0.195,-0.339
14.597,0.222,-0.340
15.147,0.257,-0.353
15.184,0.285,-0.353
15.221,0.313,-0.354
15.259,0.341,-0.355
15.296,0.369,-0.356
15.334,0.397,-0.357
14.314,0.396,-0.333
14.297,0.421,-0.333
14.279,0.446,-0.333
14.262,0.471,-0.332
14.244,0.496,-0.332
14.244,0.522,-0.332
14.282,0.549,-0.333
14.321,0.576,-0.334
14.360,0.603,-0.335
15.038,0.658,-0.350
15.026,0.685,-0.350
15.041,0.712,-0.350
14.787,-0.674,-0.304
14.794,-0.648,-0.304
15.213,-0.611,-0.313
15.194,-0.584,-0.312
15.175,-0.556,-0.312
15.195,-0.529,-0.312
14.792,-0.489,-0.304
14.758,-0.461,-0.303
14.725,-0.434,-0.303
14.692,-0.407,-0.302
14.659,-0.380,-0.301
14.626,-0.353,-0.300
14.593,-0.326,-0.300
14.579,-0.299,-0.299
14.599,-0.274,-0.300
14.620,-0.248,-0.300
14.443,-0.219,-0.297
14.420,-0.193,-0.296
14.396,-0.167,-0.296
14.373,-0.141,-0.295
14.350,-0.115,-0.295
14.327,-0.090,-0.294
14.304,-0.064,-0.294
14.309,-0.038,-0.294
14.337,-0.013,-0.294
14.366,0.013,-0.295
14.394,0.039,-0.296
14.423,0.064,-0.296
14.452,0.090,-0.297
14.221,0.114,-0.292
14.218,0.140,-0.292
14.539,0.169,-0.299
14.568,0.195,-0.299
14.597,0.222,-0.300
14.627,0.248,-0.300
15.184,0.285,-0.312
15.221,0.313,-0.313
15.259,0.341,-0.313
15.296,0.369,-0.314
14.685,0.380,-0.302
14.314,0.396,-0.294
14.297,0.421,-0.294
14.279,0.446,-0.293
14.262,0.471,-0.293
14.245,0.496,-0.293
14.272,0.523,-0.293
14.309,0.550,-0.294
14.346,0.577,-0.295
14.806,0.622,-0.304
14.817,0.649,-0.305
15.026,0.685,-0.309
15.041,0.712,-0.309
14.787,-0.674,-0.263
14.794,-0.648,-0.264
15.213,-0.611,-0.271
15.194,-0.584,-0.271
15.175,-0.556,-0.270
14.782,-0.515,-0.263
14.749,-0.487,-0.263
14.663,-0.458,-0.261
14.640,-0.431,-0.261
14.618,-0.405,-0.260
14.595,-0.378,-0.260
14.573,-0.351,-0.259
14.550,-0.325,-0.259
14.528,-0.298,-0.259
14.506,-0.272,-0.258
14.484,-0.246,-0.258
14.462,-0.219,-0.257
14.432,-0.193,-0.257
14.409,-0.167,-0.256
14.386,-0.141,-0.256
14.363,-0.115,-0.256
14.339,-0.090,-0.255
14.316,-0.064,-0.255
14.311,-0.038,-0.255
14.337,-0.013,-0.255
14.366,0.013,-0.256
14.394,0.039,-0.256
14.423,0.064,-0.257
14.431,0.090,-0.257
14.221,0.114,-0.253
14.218,0.140,-0.253
14.447,0.168,-0.257
14.452,0.194,-0.257
14.458,0.219,-0.257
14.463,0.245,-0.257
14.468,0.271,-0.258
14.474,0.297,-0.258
14.486,0.323,-0.258
14.537,0.350,-0.259
14.588,0.378,-0.260
14.314,0.396,-0.255
14.297,0.421,-0.255
14.279,0.446,-0.254
14.286,0.472,-0.254
14.323,0.499,-0.255
14.360,0.526,-0.256
14.397,0.553,-0.256
14.732,0.592,-0.262
14.741,0.619,-0.263
14.767,0.646,-0.263
14.794,0.674,-0.264
14.820,0.702,-0.264
14.847,0.730,-0.265
14.734,-0.777,-0.222
14.504,-0.739,-0.219
14.484,-0.712,-0.218
14.465,-0.685,-0.218
14.446,-0.658,-0.218
14.427,-0.632,-0.217
14.408,-0.605,-0.217
14.389,-0.578,-0.217
14.371,-0.552,-0.217
14.352,-0.526,-0.216
14.333,-0.499,-0.216
14.315,-0.473,-0.216
14.296,-0.447,-0.215
14.278,-0.421,-0.215
14.259,-0.395,-0.215
14.241,-0.369,-0.215
14.223,-0.343,-0.214
14.205,-0.317,-0.214
14.186,-0.291,-0.214
14.168,-0.266,-0.213
14.150,-0.240,-0.213
14.132,-0.214,-0.213
14.117,-0.189,-0.213
14.119,-0.164,-0.213
14.124,-0.139,-0.213
14.128,-0.114,-0.213
14.133,-0.088,-0.213
14.137,-0.063,-0.213
14.142,-0.038,-0.213
14.146,-0.013,-0.213
14.151,0.013,-0.213
14.155,0.038,-0.213
14.160,0.063,-0.213
14.164,0.089,-0.213
14.169,0.114,-0.213
14.173,0.139,-0.213
14.178,0.165,-0.214
14.182,0.190,-0.214
14.187,0.215,-0.214
14.191,0.241,-0.214
14.196,0.266,-0.214
14.200,0.292,-0.214
14.205,0.317,-0.214
14.209,0.343,-0.214
14.214,0.368,-0.214
14.218,0.394,-0.214
14.223,0.419,-0.214
14.227,0.445,-0.214
14.233,0.470,-0.214
14.263,0.497,-0.215
14.302,0.524,-0.216
14.341,0.551,-0.216
14.381,0.578,-0.217
14.420,0.605,-0.217
14.460,0.633,-0.218
14.500,0.661,-0.219
14.540,0.688,-0.219
14.581,0.717,-0.220
14.622,0.745,-0.220
14.666,0.773,-0.221
11.347,0.619,-0.171
11.350,0.639,-0.171
11.354,0.660,-0.171
11.358,0.680,-0.171
14.305,-3.639,-0.182
14.310,-3.613,-0.182
14.372,-3.601,-0.183
15.056,-0.848,-0.186
14.834,-0.809,-0.183
14.619,-0.771,-0.180
14.492,-0.738,-0.179
14.473,-0.711,-0.179
14.454,-0.684,-0.178
14.435,-0.658,-0.178
14.416,-0.631,-0.178
14.398,-0.604,-0.178
14.379,-0.578,-0.177
14.361,-0.552,-0.177
14.342,-0.525,-0.177
14.324,-0.499,-0.177
14.306,-0.473,-0.176
14.287,-0.447,-0.176
14.269,-0.420,-0.176
14.251,-0.394,-0.176
14.233,-0.369,-0.175
14.215,-0.343,-0.175
14.196,-0.317,-0.175
14.178,-0.291,-0.175
14.160,-0.266,-0.174
14.143,-0.240,-0.174
14.125,-0.214,-0.174
14.112,-0.189,-0.174
14.113,-0.164,-0.174
13.908,-0.137,-0.171
13.760,-0.111,-0.170
13.616,-0.085,-0.168
13.474,-0.060,-0.166
13.336,-0.036,-0.164
13.200,-0.012,-0.163
13.067,0.012,-0.161
12.936,0.035,-0.159
12.809,0.057,-0.158
12.683,0.079,-0.156
12.561,0.101,-0.155
12.449,0.122,-0.153
12.453,0.145,-0.153
12.457,0.167,-0.153
12.461,0.189,-0.154
12.465,0.211,-0.154
12.469,0.234,-0.154
12.473,0.256,-0.154
12.477,0.279,-0.154
12.462,0.300,-0.154
12.442,0.322,-0.153
12.422,0.344,-0.153
12.403,0.365,-0.153
12.383,0.387,-0.153
12.364,0.409,-0.152
12.344,0.430,-0.152
12.325,0.451,-0.152
12.305,0.473,-0.152
12.252,0.492,-0.151
12.164,0.511,-0.150
12.392,0.542,-0.153
12.438,0.567,-0.153
12.484,0.591,-0.154
12.530,0.616,-0.155
12.540,0.639,-0.155
12.544,0.661,-0.155
11.347,0.619,-0.140
11.350,0.639,-0.140
11.354,0.660,-0.140
11.358,0.680,-0.140
14.305,-3.639,-0.141
14.310,-3.613,-0.141
14.372,-3.601,-0.142
15.041,-0.955,-0.144
15.046,-0.928,-0.144
14.540,-0.871,-0.140
14.545,-0.845,-0.140
14.564,-0.820,-0.140
14.578,-0.795,-0.140
14.589,-0.769,-0.140
14.492,-0.738,-0.139
14.473,-0.711,-0.139
14.454,-0.684,-0.139
14.435,-0.658,-0.138
14.416,-0.631,-0.138
14.398,-0.604,-0.138
14.379,-0.578,-0.138
14.361,-0.552,-0.138
14.342,-0.525,-0.138
14.324,-0.499,-0.137
14.306,-0.473,-0.137
14.287,-0.447,-0.137
14.269,-0.420,-0.137
14.251,-0.394,-0.137
14.233,-0.369,-0.136
14.215,-0.343,-0.136
14.196,-0.317,-0.136
14.178,-0.291,-0.136
14.160,-0.266,-0.136
14.143,-0.240,-0.136
14.125,-0.214,-0.135
14.112,-0.189,-0.135
14.113,-0.164,-0.135
14.118,-0.139,-0.135
14.122,-0.113,-0.135
14.008,-0.088,-0.134
14.012,-0.063,-0.134
14.136,-0.038,-0.135
14.140,-0.013,-0.135
14.145,0.013,-0.136
14.149,0.038,-0.136
14.153,0.063,-0.136
14.158,0.088,-0.136
14.162,0.114,-0.136
14.167,0.139,-0.136
14.171,0.164,-0.136
14.176,0.190,-0.136
14.180,0.215,-0.136
14.185,0.241,-0.136
14.189,0.266,-0.136
14.194,0.291,-0.136
14.198,0.317,-0.136
14.125,0.341,-0.135
14.129,0.366,-0.135
14.134,0.391,-0.135
14.097,0.415,-0.135
14.221,0.444,-0.136
14.226,0.470,-0.136
14.251,0.496,-0.137
14.289,0.523,-0.137
14.328,0.550,-0.137
14.366,0.577,-0.138
14.405,0.605,-0.138
14.445,0.632,-0.139
14.484,0.660,-0.139
14.524,0.688,-0.139
14.564,0.716,-0.140
14.604,0.744,-0.140
14.644,0.772,-0.141
14.685,0.800,-0.141
14.726,0.829,-0.141
14.767,0.858,-0.142
15.375,0.921,-0.148
15.374,0.948,-0.148
14.872,0.944,-0.143
14.877,0.971,-0.143
15.368,1.031,-0.148
15.367,1.058,-0.148
15.365,1.085,-0.148
15.363,1.113,-0.148
15.361,1.140,-0.148
15.359,1.168,-0.148
15.357,1.195,-0.148
15.354,1.223,-0.148
15.352,1.250,-0.148
15.350,1.277,-0.148
15.348,1.305,-0.148
15.345,1.332,-0.148
15.343,1.360,-0.148
15.340,1.387,-0.148
15.338,1.414,-0.148
15.335,1.442,-0.148
15.333,1.469,-0.148
15.330,1.496,-0.148
15.327,1.524,-0.148
15.325,1.551,-0.148
15.322,1.579,-0.148
15.319,1.606,-0.148
15.316,1.633,-0.148
15.313,1.661,-0.148
15.310,1.688,-0.148
15.307,1.715,-0.148
15.304,1.743,-0.148
15.301,1.770,-0.148
15.298,1.797,-0.148
15.295,1.825,-0.148
15.291,1.852,-0.148
15.288,1.879,-0.148
15.285,1.906,-0.148
15.281,1.934,-0.148
15.278,1.961,-0.148
15.274,1.988,-0.148
15.271,2.016,-0.148
15.267,2.043,-0.148
15.263,2.070,-0.148
15.260,2.097,-0.148
15.256,2.125,-0.148
15.252,2.152,-0.148
15.248,2.179,-0.148
15.244,2.206,-0.148
15.240,2.234,-0.148
15.236,2.261,-0.148
15.232,2.288,-0.148
15.228,2.315,-0.148
15.224,2.342,-0.148
15.220,2.369,-0.148
15.215,2.397,-0.148
15.211,2.424,-0.148
15.207,2.451,-0.148
15.202,2.478,-0.148
15.198,2.505,-0.148
15.193,2.532,-0.148
15.360,2.588,-0.149
15.397,2.623,-0.150
15.433,2.657,-0.150
15.470,2.692,-0.150
15.489,2.724,-0.151
15.494,2.753,-0.151
15.498,2.783,-0.151
15.503,2.812,-0.151
15.508,2.842,-0.151
15.513,2.871,-0.151
15.518,2.901,-0.151
15.523,2.931,-0.151
15.528,2.960,-0.151
15.533,2.990,-0.152
15.538,3.020,-0.152
15.543,3.049,-0.152
15.548,3.079,-0.152
15.553,3.109,-0.152
15.558,3.139,-0.152
15.563,3.169,-0.152
15.568,3.199,-0.152
15.573,3.229,-0.152
15.578,3.259,-0.153
15.583,3.289,-0.153
15.589,3.319,-0.153
15.594,3.349,-0.153
15.599,3.380,-0.153
15.604,3.410,-0.153
15.609,3.440,-0.153
15.614,3.471,-0.153
15.619,3.501,-0.153
15.624,3.532,-0.153
15.630,3.562,-0.154
15.635,3.593,-0.154
15.605,3.615,-0.153
15.611,3.646,-0.154
15.100,-0.850,-0.104
14.878,-0.811,-0.102
14.663,-0.773,-0.100
14.499,-0.738,-0.099
14.479,-0.712,-0.099
14.460,-0.685,-0.099
14.442,-0.658,-0.099
14.423,-0.631,-0.099
14.404,-0.605,-0.099
14.386,-0.578,-0.099
14.367,-0.552,-0.098
14.349,-0.525,-0.098
14.331,-0.499,-0.098
14.312,-0.473,-0.098
14.294,-0.447,-0.098
14.276,-0.421,-0.098
14.257,-0.395,-0.098
14.239,-0.369,-0.097
14.221,-0.343,-0.097
14.203,-0.317,-0.097
14.185,-0.291,-0.097
14.167,-0.266,-0.097
14.149,-0.240,-0.097
14.131,-0.214,-0.097
14.117,-0.189,-0.097
14.119,-0.164,-0.097
14.123,-0.139,-0.097
14.128,-0.114,-0.097
14.132,-0.088,-0.097
14.136,-0.063,-0.097
14.141,-0.038,-0.097
14.145,-0.013,-0.097
14.150,0.013,-0.097
14.154,0.038,-0.097
14.159,0.063,-0.097
14.163,0.089,-0.097
14.168,0.114,-0.097
14.172,0.139,-0.097
14.177,0.165,-0.097
14.181,0.190,-0.097
14.186,0.215,-0.097
14.190,0.241,-0.097
14.195,0.266,-0.097
14.199,0.292,-0.097
14.204,0.317,-0.097
14.208,0.343,-0.097
14.213,0.368,-0.097
14.217,0.394,-0.097
14.222,0.419,-0.097
14.226,0.445,-0.097
14.232,0.470,-0.097
14.260,0.497,-0.098
14.299,0.524,-0.098
14.337,0.551,-0.098
14.376,0.578,-0.098
14.415,0.605,-0.099
14.454,0.633,-0.099
14.494,0.660,-0.099
14.534,0.688,-0.100
14.574,0.716,-0.100
14.614,0.744,-0.100
14.654,0.773,-0.100
14.695,0.801,-0.101
14.736,0.830,-0.101
14.778,0.859,-0.101
15.100,-0.850,-0.062
14.878,-0.811,-0.061
14.663,-0.773,-0.060
14.499,-0.738,-0.060
14.479,-0.712,-0.060
14.460,-0.685,-0.059
14.442,-0.658,-0.059
14.423,-0.631,-0.059
14.404,-0.605,-0.059
14.327,-0.576,-0.059
14.308,-0.550,-0.059
14.290,-0.523,-0.059
14.271,-0.497,-0.059
14.253,-0.471,-0.059
14.235,-0.445,-0.058
14.216,-0.419,-0.058
14.203,-0.393,-0.058
14.224,-0.368,-0.058
14.221,-0.343,-0.058
14.203,-0.317,-0.058
14.185,-0.291,-0.058
14.167,-0.266,-0.058
14.149,-0.240,-0.058
14.131,-0.214,-0.058
14.117,-0.189,-0.058
14.119,-0.164,-0.058
14.123,-0.139,-0.058
14.128,-0.114,-0.058
14.132,-0.088,-0.058
14.136,-0.063,-0.058
14.141,-0.038,-0.058
14.145,-0.013,-0.058
14.150,0.013,-0.058
14.154,0.038,-0.058
14.159,0.063,-0.058
14.163,0.089,-0.058
14.168,0.114,-0.058
14.172,0.139,-0.058
14.177,0.165,-0.058
14.181,0.190,-0.058
14.186,0.215,-0.058
14.190,0.241,-0.058
14.195,0.266,-0.058
14.199,0.292,-0.058
14.204,0.317,-0.058
14.208,0.343,-0.058
14.213,0.368,-0.058
14.217,0.394,-0.058
14.222,0.419,-0.058
14.226,0.445,-0.058
14.232,0.470,-0.058
14.260,0.497,-0.059
14.299,0.524,-0.059
14.337,0.551,-0.059
14.376,0.578,-0.059
14.415,0.605,-0.059
14.454,0.633,-0.059
14.494,0.660,-0.060
14.534,0.688,-0.060
14.574,0.716,-0.060
14.614,0.744,-0.060
14.654,0.773,-0.060
14.695,0.801,-0.060
14.736,0.830,-0.061
14.778,0.859,-0.061
15.100,-0.850,-0.021
14.878,-0.811,-0.020
14.663,-0.773,-0.020
14.499,-0.738,-0.020
14.479,-0.712,-0.020
14.460,-0.685,-0.020
14.442,-0.658,-0.020
14.423,-0.631,-0.020
14.284,-0.600,-0.020
14.265,-0.573,-0.020
14.247,-0.547,-0.020
14.228,-0.521,-0.019
14.210,-0.495,-0.019
14.192,-0.469,-0.019
14.174,-0.443,-0.019
14.163,-0.417,-0.019
14.189,-0.393,-0.019
14.224,-0.368,-0.019
14.221,-0.343,-0.019
14.203,-0.317,-0.019
14.185,-0.291,-0.019
14.167,-0.266,-0.019
14.149,-0.240,-0.019
14.131,-0.214,-0.019
14.117,-0.189,-0.019
14.119,-0.164,-0.019
14.123,-0.139,-0.019
14.128,-0.114,-0.019
14.132,-0.088,-0.019
14.136,-0.063,-0.019
14.141,-0.038,-0.019
14.145,-0.013,-0.019
14.150,0.013,-0.019
14.154,0.038,-0.019
14.159,0.063,-0.019
14.163,0.089,-0.019
14.168,0.114,-0.019
14.172,0.139,-0.019
14.177,0.165,-0.019
14.181,0.190,-0.019
14.186,0.215,-0.019
14.190,0.241,-0.019
14.195,0.266,-0.019
14.199,0.292,-0.019
14.204,0.317,-0.019
14.208,0.343,-0.019
14.213,0.368,-0.019
14.217,0.394,-0.019
14.222,0.419,-0.019
14.226,0.445,-0.019
14.232,0.470,-0.019
14.260,0.497,-0.020
14.299,0.524,-0.020
14.337,0.551,-0.020
14.376,0.578,-0.020
14.415,0.605,-0.020
14.454,0.633,-0.020
14.494,0.660,-0.020
14.534,0.688,-0.020
14.574,0.716,-0.020
14.614,0.744,-0.020
14.654,0.773,-0.020
14.695,0.801,-0.020
14.736,0.830,-0.020
14.778,0.859,-0.020
15.031,-0.954,0.021
14.565,-0.898,0.020
14.564,-0.872,0.020
14.568,-0.846,0.020
14.573,-0.820,0.020
14.577,-0.795,0.020
14.582,-0.769,0.020
14.499,-0.738,0.020
14.479,-0.712,0.020
14.460,-0.685,0.020
14.260,-0.650,0.020
14.241,-0.623,0.020
14.223,-0.597,0.019
14.205,-0.571,0.019
14.187,-0.545,0.019
14.169,-0.519,0.019
14.151,-0.493,0.019
14.133,-0.467,0.019
14.115,-0.441,0.019
14.123,-0.416,0.019
14.156,-0.392,0.019
14.190,-0.367,0.019
14.221,-0.343,0.019
14.203,-0.317,0.019
14.185,-0.291,0.019
14.167,-0.266,0.019
14.149,-0.240,0.019
14.131,-0.214,0.019
14.117,-0.189,0.019
14.119,-0.164,0.019
14.123,-0.139,0.019
14.128,-0.114,0.019
14.132,-0.088,0.019
14.136,-0.063,0.019
14.141,-0.038,0.019
14.145,-0.013,0.019
14.150,0.013,0.019
14.154,0.038,0.019
14.159,0.063,0.019
14.163,0.089,0.019
14.168,0.114,0.019
14.172,0.139,0.019
14.177,0.165,0.019
14.181,0.190,0.019
14.097,0.214,0.019
14.099,0.239,0.019
14.104,0.264,0.019
14.108,0.290,0.019
14.112,0.315,0.019
14.117,0.340,0.019
14.121,0.366,0.019
14.126,0.391,0.019
14.222,0.419,0.019
14.226,0.445,0.019
14.232,0.470,0.019
14.260,0.497,0.020
14.299,0.524,0.020
14.337,0.551,0.020
14.376,0.578,0.020
14.415,0.605,0.020
14.454,0.633,0.020
14.494,0.660,0.020
14.534,0.688,0.020
14.574,0.716,0.020
14.614,0.744,0.020
14.654,0.773,0.020
14.695,0.801,0.020
14.736,0.830,0.020
14.778,0.859,0.020
14.873,0.891,0.020
14.878,0.918,0.020
14.883,0.945,0.020
14.887,0.972,0.020
14.962,-0.950,0.062
14.565,-0.898,0.060
14.563,-0.872,0.060
14.568,-0.846,0.060
14.573,-0.820,0.060
14.577,-0.795,0.060
14.582,-0.769,0.060
14.499,-0.738,0.060
14.479,-0.712,0.060
14.200,-0.672,0.058
14.182,-0.646,0.058
14.164,-0.620,0.058
14.145,-0.594,0.058
14.127,-0.568,0.058
14.109,-0.542,0.058
14.091,-0.516,0.058
14.073,-0.490,0.058
14.058,-0.465,0.058
14.086,-0.440,0.058
14.121,-0.416,0.058
14.156,-0.392,0.058
14.190,-0.367,0.058
14.221,-0.343,0.058
14.203,-0.317,0.058
14.185,-0.291,0.058
14.167,-0.266,0.058
14.149,-0.240,0.058
14.131,-0.214,0.058
14.117,-0.189,0.058
14.119,-0.164,0.058
14.123,-0.139,0.058
14.128,-0.114,0.058
14.132,-0.088,0.058
14.088,-0.063,0.058
14.073,-0.038,0.058
14.077,-0.013,0.058
14.082,0.013,0.058
14.086,0.038,0.058
14.091,0.063,0.058
14.163,0.089,0.058
14.168,0.114,0.058
14.172,0.139,0.058
14.177,0.165,0.058
14.181,0.190,0.058
14.097,0.214,0.058
14.099,0.239,0.058
14.104,0.264,0.058
14.108,0.290,0.058
14.112,0.315,0.058
14.117,0.340,0.058
14.121,0.366,0.058
14.126,0.391,0.058
14.222,0.419,0.058
14.226,0.445,0.058
14.232,0.470,0.058
14.260,0.497,0.059
14.257,0.522,0.059
14.240,0.547,0.059
14.224,0.572,0.058
14.240,0.598,0.059
14.280,0.625,0.059
14.319,0.652,0.059
14.358,0.680,0.059
14.376,0.706,0.059
14.411,0.734,0.059
14.409,0.760,0.059
14.439,0.787,0.059
14.478,0.815,0.060
14.598,0.848,0.060
14.639,0.877,0.060
14.680,0.905,0.060
14.883,0.945,0.061
14.887,0.972,0.061
14.962,-0.950,0.103
14.565,-0.898,0.100
14.563,-0.872,0.100
14.568,-0.846,0.100
14.573,-0.820,0.100
14.577,-0.795,0.100
14.582,-0.769,0.100
14.499,-0.738,0.099
14.479,-0.712,0.099
14.200,-0.672,0.097
14.182,-0.646,0.097
14.164,-0.620,0.097
14.145,-0.594,0.097
14.127,-0.568,0.097
14.109,-0.542,0.097
14.091,-0.516,0.097
14.073,-0.490,0.096
14.058,-0.465,0.096
14.086,-0.440,0.096
14.121,-0.416,0.097
14.156,-0.392,0.097
14.190,-0.367,0.097
14.221,-0.343,0.097
14.203,-0.317,0.097
14.185,-0.291,0.097
14.167,-0.266,0.097
14.149,-0.240,0.097
14.131,-0.214,0.097
14.117,-0.189,0.097
14.119,-0.164,0.097
14.123,-0.139,0.097
14.128,-0.114,0.097
14.132,-0.088,0.097
14.088,-0.063,0.096
14.073,-0.038,0.096
14.077,-0.013,0.096
14.082,0.013,0.096
14.086,0.038,0.096
14.091,0.063,0.096
14.163,0.089,0.097
14.168,0.114,0.097
14.172,0.139,0.097
14.177,0.165,0.097
14.181,0.190,0.097
14.097,0.214,0.096
14.099,0.239,0.097
14.104,0.264,0.097
14.108,0.290,0.097
14.112,0.315,0.097
14.117,0.340,0.097
14.121,0.366,0.097
14.126,0.391,0.097
14.222,0.419,0.097
14.226,0.445,0.097
14.232,0.470,0.097
14.260,0.497,0.098
14.257,0.522,0.098
14.240,0.547,0.098
14.224,0.572,0.097
14.240,0.598,0.098
14.279,0.625,0.098
14.318,0.652,0.098
14.357,0.680,0.098
14.363,0.706,0.098
14.348,0.731,0.098
14.374,0.758,0.099
14.414,0.786,0.099
14.454,0.814,0.099
14.495,0.842,0.099
14.639,0.877,0.100
14.680,0.905,0.101
14.883,0.945,0.102
14.887,0.972,0.102
14.565,-0.898,0.140
14.563,-0.872,0.140
14.568,-0.846,0.140
14.573,-0.820,0.140
14.577,-0.795,0.140
14.582,-0.769,0.140
14.499,-0.738,0.139
14.479,-0.712,0.139
14.460,-0.685,0.139
14.442,-0.658,0.139
14.272,-0.625,0.137
14.254,-0.598,0.137
14.235,-0.572,0.137
14.216,-0.546,0.136
14.198,-0.520,0.136
14.179,-0.494,0.136
14.161,-0.468,0.136
14.143,-0.442,0.136
14.155,-0.417,0.136
14.189,-0.393,0.136
14.194,-0.368,0.136
14.221,-0.343,0.136
14.203,-0.317,0.136
14.185,-0.291,0.136
14.167,-0.266,0.136
14.149,-0.240,0.136
14.131,-0.214,0.135
14.117,-0.189,0.135
14.119,-0.164,0.135
14.123,-0.139,0.135
14.128,-0.114,0.135
14.132,-0.088,0.135
14.088,-0.063,0.135
14.073,-0.038,0.135
14.077,-0.013,0.135
14.082,0.013,0.135
14.086,0.038,0.135
14.091,0.063,0.135
14.163,0.089,0.136
14.168,0.114,0.136
14.172,0.139,0.136
14.177,0.165,0.136
14.181,0.190,0.136
14.097,0.214,0.135
14.099,0.239,0.135
14.104,0.264,0.135
14.108,0.290,0.135
14.112,0.315,0.135
14.117,0.340,0.135
14.121,0.366,0.135
14.126,0.391,0.135
14.222,0.419,0.136
14.226,0.445,0.136
14.232,0.470,0.136
14.260,0.497,0.137
14.257,0.522,0.137
14.240,0.547,0.137
14.224,0.572,0.136
14.240,0.598,0.137
14.279,0.625,0.137
14.318,0.652,0.137
14.357,0.680,0.138
14.363,0.706,0.138
14.348,0.731,0.138
14.374,0.758,0.138
14.414,0.786,0.138
14.454,0.814,0.139
14.495,0.842,0.139
14.639,0.877,0.141
14.680,0.905,0.141
14.883,0.945,0.143
14.887,0.972,0.143
14.565,-0.898,0.180
14.563,-0.872,0.180
14.568,-0.846,0.180
14.573,-0.820,0.180
14.577,-0.795,0.180
14.582,-0.769,0.180
14.499,-0.738,0.179
14.479,-0.712,0.179
14.460,-0.685,0.178
14.442,-0.658,0.178
14.423,-0.631,0.178
14.314,-0.601,0.177
14.294,-0.575,0.176
14.275,-0.548,0.176
14.257,-0.522,0.176
14.238,-0.496,0.176
14.220,-0.470,0.175
14.201,-0.444,0.175
14.182,-0.418,0.175
14.190,-0.393,0.175
14.224,-0.368,0.175
14.221,-0.343,0.175
14.203,-0.317,0.175
14.185,-0.291,0.175
14.167,-0.266,0.175
14.149,-0.240,0.174
14.131,-0.214,0.174
14.117,-0.189,0.174
14.119,-0.164,0.174
14.123,-0.139,0.174
14.128,-0.114,0.174
14.132,-0.088,0.174
14.088,-0.063,0.174
14.073,-0.038,0.173
14.077,-0.013,0.173
14.082,0.013,0.173
14.086,0.038,0.174
14.091,0.063,0.174
14.163,0.089,0.175
14.168,0.114,0.175
14.172,0.139,0.175
14.177,0.165,0.175
14.181,0.190,0.175
14.097,0.214,0.174
14.099,0.239,0.174
14.104,0.264,0.174
14.108,0.290,0.174
14.112,0.315,0.174
14.117,0.340,0.174
14.121,0.366,0.174
14.126,0.391,0.174
14.222,0.419,0.175
14.226,0.445,0.175
14.232,0.470,0.175
14.260,0.497,0.176
14.257,0.522,0.176
14.240,0.547,0.176
14.224,0.572,0.175
14.240,0.598,0.176
14.279,0.625,0.176
14.318,0.652,0.177
14.357,0.680,0.177
14.363,0.706,0.177
14.348,0.731,0.177
14.374,0.758,0.177
14.414,0.786,0.178
14.454,0.814,0.178
14.495,0.842,0.179
14.639,0.877,0.181
14.680,0.905,0.181
14.883,0.945,0.184
14.887,0.972,0.184
14.565,-0.898,0.220
14.563,-0.872,0.220
14.568,-0.846,0.220
14.573,-0.820,0.220
14.577,-0.795,0.220
14.582,-0.769,0.220
14.499,-0.738,0.219
14.479,-0.712,0.218
14.460,-0.685,0.218
14.442,-0.658,0.218
14.423,-0.631,0.217
14.404,-0.605,0.217
14.361,-0.577,0.216
14.335,-0.551,0.216
14.316,-0.524,0.216
14.297,-0.498,0.215
14.279,-0.472,0.215
14.260,-0.446,0.215
14.241,-0.420,0.215
14.223,-0.394,0.214
14.226,-0.368,0.214
14.221,-0.343,0.214
14.203,-0.317,0.214
14.185,-0.291,0.214
14.167,-0.266,0.213
14.149,-0.240,0.213
14.131,-0.214,0.213
14.117,-0.189,0.213
14.119,-0.164,0.213
14.123,-0.139,0.213
14.128,-0.114,0.213
14.132,-0.088,0.213
14.088,-0.063,0.212
14.073,-0.038,0.212
14.077,-0.013,0.212
14.082,0.013,0.212
14.086,0.038,0.212
14.091,0.063,0.212
14.163,0.089,0.213
14.168,0.114,0.213
14.172,0.139,0.213
14.177,0.165,0.213
14.181,0.190,0.214
14.097,0.214,0.212
14.099,0.239,0.212
14.104,0.264,0.212
14.108,0.290,0.212
14.112,0.315,0.213
14.117,0.340,0.213
14.121,0.366,0.213
14.126,0.391,0.213
14.222,0.419,0.214
14.226,0.445,0.214
14.232,0.470,0.214
14.260,0.497,0.215
14.257,0.522,0.215
14.240,0.547,0.215
14.224,0.572,0.214
14.240,0.598,0.215
14.279,0.625,0.215
14.318,0.652,0.216
14.357,0.680,0.216
14.363,0.706,0.217
14.348,0.731,0.216
14.374,0.758,0.217
14.414,0.786,0.217
14.454,0.814,0.218
14.495,0.842,0.219
14.639,0.877,0.221
14.680,0.905,0.221
14.883,0.945,0.225
14.887,0.972,0.225
14.565,-0.898,0.260
14.563,-0.872,0.260
14.568,-0.846,0.260
14.573,-0.820,0.260
14.577,-0.795,0.260
14.582,-0.769,0.260
14.499,-0.738,0.258
14.479,-0.712,0.258
14.460,-0.685,0.258
14.442,-0.658,0.257
14.423,-0.631,0.257
14.404,-0.605,0.257
14.386,-0.578,0.256
14.367,-0.552,0.256
14.349,-0.525,0.256
14.331,-0.499,0.255
14.312,-0.473,0.255
14.294,-0.447,0.255
14.276,-0.421,0.254
14.257,-0.395,0.254
14.239,-0.369,0.254
14.221,-0.343,0.253
14.203,-0.317,0.253
14.185,-0.291,0.253
14.167,-0.266,0.252
14.149,-0.240,0.252
14.131,-0.214,0.252
14.117,-0.189,0.251
14.119,-0.164,0.251
14.123,-0.139,0.251
14.128,-0.114,0.251
14.132,-0.088,0.252
14.088,-0.063,0.251
14.073,-0.038,0.250
14.077,-0.013,0.251
14.082,0.013,0.251
14.086,0.038,0.251
14.091,0.063,0.251
14.163,0.089,0.252
14.168,0.114,0.252
14.172,0.139,0.252
14.177,0.165,0.252
14.181,0.190,0.252
14.097,0.214,0.251
14.099,0.239,0.251
14.104,0.264,0.251
14.108,0.290,0.251
14.112,0.315,0.251
14.117,0.340,0.251
14.121,0.366,0.251
14.126,0.391,0.251
14.222,0.419,0.253
14.226,0.445,0.253
14.232,0.470,0.253
14.260,0.497,0.254
14.257,0.522,0.254
14.240,0.547,0.254
14.224,0.572,0.253
14.240,0.598,0.254
14.279,0.625,0.254
14.318,0.652,0.255
14.357,0.680,0.256
14.363,0.706,0.256
14.348,0.731,0.256
14.374,0.758,0.256
14.414,0.786,0.257
14.454,0.814,0.258
14.495,0.842,0.258
14.639,0.877,0.261
14.680,0.905,0.262
14.883,0.945,0.265
14.887,0.972,0.266
14.565,-0.898,0.300
14.563,-0.872,0.300
14.568,-0.846,0.300
14.573,-0.820,0.300
14.577,-0.795,0.300
14.582,-0.769,0.300
14.500,-0.738,0.298
14.479,-0.712,0.298
14.460,-0.685,0.297
14.442,-0.658,0.297
14.423,-0.631,0.296
14.404,-0.605,0.296
14.386,-0.578,0.296
14.367,-0.552,0.295
14.349,-0.525,0.295
14.331,-0.499,0.294
14.312,-0.473,0.294
14.294,-0.447,0.294
14.276,-0.421,0.293
14.257,-0.395,0.293
14.239,-0.369,0.293
14.221,-0.343,0.292
14.203,-0.317,0.292
14.185,-0.291,0.291
14.167,-0.266,0.291
14.149,-0.240,0.291
14.131,-0.214,0.290
14.117,-0.189,0.290
14.119,-0.164,0.290
14.123,-0.139,0.290
14.128,-0.114,0.290
14.132,-0.088,0.290
14.088,-0.063,0.289
14.073,-0.038,0.289
14.077,-0.013,0.289
14.082,0.013,0.289
14.086,0.038,0.289
14.091,0.063,0.289
14.163,0.089,0.291
14.168,0.114,0.291
14.172,0.139,0.291
14.177,0.165,0.291
14.181,0.190,0.291
14.186,0.215,0.291
14.190,0.241,0.291
14.195,0.266,0.292
14.199,0.292,0.292
14.204,0.317,0.292
14.208,0.343,0.292
14.213,0.368,0.292
14.217,0.394,0.292
14.222,0.419,0.292
14.226,0.445,0.292
14.232,0.470,0.292
14.260,0.497,0.293
14.257,0.522,0.293
14.240,0.547,0.293
14.224,0.572,0.292
14.240,0.598,0.293
14.279,0.625,0.294
14.318,0.652,0.294
14.357,0.680,0.295
14.363,0.706,0.295
14.348,0.731,0.295
14.374,0.758,0.296
14.414,0.786,0.296
14.454,0.814,0.297
14.495,0.842,0.298
14.639,0.877,0.301
14.680,0.905,0.302
14.883,0.945,0.306
14.887,0.972,0.306
14.565,-0.898,0.340
14.563,-0.872,0.340
14.568,-0.846,0.340
14.573,-0.820,0.340
14.577,-0.795,0.340
14.582,-0.769,0.340
14.500,-0.738,0.338
14.479,-0.712,0.337
14.460,-0.685,0.337
14.442,-0.658,0.336
14.423,-0.631,0.336
14.404,-0.605,0.336
14.386,-0.578,0.335
14.367,-0.552,0.335
14.349,-0.525,0.334
14.331,-0.499,0.334
14.312,-0.473,0.333
14.294,-0.447,0.333
14.276,-0.421,0.332
14.257,-0.395,0.332
14.239,-0.369,0.332
14.221,-0.343,0.331
14.203,-0.317,0.331
14.185,-0.291,0.330
14.167,-0.266,0.330
14.149,-0.240,0.329
14.131,-0.214,0.329
14.117,-0.189,0.329
14.119,-0.164,0.329
14.123,-0.139,0.329
14.128,-0.114,0.329
14.132,-0.088,0.329
14.088,-0.063,0.328
14.073,-0.038,0.328
14.077,-0.013,0.328
14.082,0.013,0.328
14.086,0.038,0.328
14.091,0.063,0.328
14.163,0.089,0.330
14.168,0.114,0.330
14.172,0.139,0.330
14.177,0.165,0.330
14.181,0.190,0.330
14.186,0.215,0.330
14.190,0.241,0.330
14.195,0.266,0.330
14.199,0.292,0.331
14.204,0.317,0.331
14.208,0.343,0.331
14.213,0.368,0.331
14.217,0.394,0.331
14.222,0.419,0.331
14.226,0.445,0.331
14.232,0.470,0.331
14.260,0.497,0.332
14.257,0.522,0.332
14.240,0.547,0.332
14.224,0.572,0.331
14.240,0.598,0.332
14.279,0.625,0.333
14.318,0.652,0.334
14.358,0.680,0.335
14.365,0.706,0.335
14.350,0.731,0.334
14.378,0.758,0.335
14.419,0.786,0.336
14.460,0.814,0.337
14.503,0.843,0.338
14.639,0.877,0.341
14.680,0.905,0.342
14.883,0.945,0.347
14.887,0.972,0.347
14.565,-0.898,0.380
14.563,-0.872,0.380
14.568,-0.846,0.380
14.573,-0.820,0.380
14.577,-0.795,0.380
14.582,-0.769,0.380
14.500,-0.738,0.378
14.479,-0.712,0.377
14.460,-0.685,0.377
14.442,-0.658,0.376
14.423,-0.631,0.376
14.404,-0.605,0.375
14.386,-0.578,0.375
14.367,-0.552,0.374
14.349,-0.525,0.374
14.331,-0.499,0.373
14.312,-0.473,0.373
14.294,-0.447,0.372
14.276,-0.421,0.372
14.257,-0.395,0.371
14.239,-0.369,0.371
14.221,-0.343,0.370
14.203,-0.317,0.370
14.185,-0.291,0.369
14.167,-0.266,0.369
14.149,-0.240,0.368
14.131,-0.214,0.368
14.117,-0.189,0.367
14.119,-0.164,0.367
14.123,-0.139,0.367
14.128,-0.114,0.368
14.132,-0.088,0.368
14.136,-0.063,0.368
14.141,-0.038,0.368
14.145,-0.013,0.368
14.150,0.013,0.368
14.154,0.038,0.368
14.159,0.063,0.368
14.163,0.089,0.368
14.168,0.114,0.369
14.172,0.139,0.369
14.177,0.165,0.369
14.181,0.190,0.369
14.186,0.215,0.369
14.190,0.241,0.369
14.195,0.266,0.369
14.199,0.292,0.369
14.204,0.317,0.370
14.208,0.343,0.370
14.213,0.368,0.370
14.217,0.394,0.370
14.222,0.419,0.370
14.226,0.445,0.370
14.232,0.470,0.370
14.260,0.497,0.371
14.299,0.524,0.372
14.337,0.551,0.373
14.376,0.578,0.374
14.415,0.605,0.375
14.454,0.633,0.376
14.494,0.660,0.377
14.534,0.688,0.379
14.574,0.716,0.380
14.614,0.744,0.381
14.654,0.773,0.382
14.695,0.801,0.383
14.736,0.830,0.384
14.778,0.859,0.385
14.873,0.891,0.388
14.878,0.918,0.388
14.883,0.945,0.388
14.887,0.972,0.388
14.574,-0.873,0.420
14.579,-0.847,0.420
14.584,-0.821,0.420
14.589,-0.795,0.420
14.594,-0.769,0.420
14.500,-0.738,0.417
14.479,-0.712,0.417
14.460,-0.685,0.416
14.442,-0.658,0.416
14.423,-0.631,0.415
14.404,-0.605,0.415
14.386,-0.578,0.414
14.367,-0.552,0.413
14.349,-0.525,0.413
14.331,-0.499,0.412
14.312,-0.473,0.412
14.294,-0.447,0.411
14.276,-0.421,0.411
14.257,-0.395,0.410
14.239,-0.369,0.410
14.221,-0.343,0.409
14.203,-0.317,0.409
14.185,-0.291,0.408
14.167,-0.266,0.407
14.149,-0.240,0.407
14.131,-0.214,0.406
14.117,-0.189,0.406
14.119,-0.164,0.406
14.123,-0.139,0.406
14.128,-0.114,0.406
14.132,-0.088,0.406
14.136,-0.063,0.406
14.141,-0.038,0.407
14.145,-0.013,0.407
14.119,0.013,0.406
14.154,0.038,0.407
14.159,0.063,0.407
14.163,0.089,0.407
14.168,0.114,0.407
14.172,0.139,0.408
14.177,0.165,0.408
14.181,0.190,0.408
14.186,0.215,0.408
14.190,0.241,0.408
14.194,0.266,0.408
14.199,0.292,0.408
14.204,0.317,0.409
14.208,0.343,0.409
14.213,0.368,0.409
14.217,0.394,0.409
14.222,0.419,0.409
14.226,0.445,0.409
14.232,0.470,0.409
14.260,0.497,0.410
14.299,0.524,0.411
14.337,0.551,0.413
14.376,0.578,0.414
14.415,0.605,0.415
14.454,0.633,0.416
14.494,0.660,0.417
14.534,0.688,0.418
14.574,0.716,0.420
14.614,0.744,0.421
14.654,0.773,0.422
14.695,0.801,0.423
14.736,0.830,0.424
14.778,0.859,0.426
15.089,-0.985,0.476
15.084,-0.957,0.476
15.079,-0.930,0.476
15.074,-0.903,0.476
15.070,-0.875,0.475
15.066,-0.848,0.475
14.878,-0.811,0.469
14.663,-0.773,0.462
14.500,-0.738,0.457
14.479,-0.712,0.457
14.460,-0.685,0.456
14.442,-0.658,0.455
14.423,-0.631,0.455
14.404,-0.605,0.454
14.386,-0.578,0.453
14.367,-0.552,0.453
14.349,-0.525,0.452
14.331,-0.499,0.452
14.312,-0.473,0.451
14.294,-0.447,0.450
14.276,-0.421,0.450
14.257,-0.395,0.449
14.239,-0.369,0.449
14.221,-0.343,0.448
14.203,-0.317,0.447
14.185,-0.291,0.447
14.167,-0.266,0.446
14.149,-0.240,0.446
14.131,-0.214,0.445
14.117,-0.189,0.445
14.119,-0.164,0.445
14.123,-0.139,0.445
14.128,-0.114,0.445
14.132,-0.088,0.445
14.136,-0.063,0.445
14.141,-0.038,0.445
14.145,-0.013,0.446
14.150,0.013,0.446
14.154,0.038,0.446
14.159,0.063,0.446
14.163,0.089,0.446
14.168,0.114,0.446
14.172,0.139,0.446
14.177,0.165,0.447
14.181,0.190,0.447
14.186,0.215,0.447
14.190,0.241,0.447
14.195,0.266,0.447
14.199,0.292,0.447
14.204,0.317,0.447
14.208,0.343,0.448
14.213,0.368,0.448
14.217,0.394,0.448
14.222,0.419,0.448
14.226,0.445,0.448
14.232,0.470,0.448
14.260,0.497,0.449
14.299,0.524,0.451
14.337,0.551,0.452
14.376,0.578,0.453
14.415,0.605,0.454
14.454,0.633,0.456
14.494,0.660,0.457
14.534,0.688,0.458
14.574,0.716,0.460
14.614,0.744,0.461
14.654,0.773,0.462
14.695,0.801,0.463
14.736,0.830,0.465
14.778,0.859,0.466
15.110,0.905,0.477
15.120,0.933,0.477
15.133,0.961,0.478
14.797,-0.939,0.508
14.518,-0.895,0.498
14.503,-0.869,0.497
14.508,-0.843,0.498
14.513,-0.817,0.498
14.519,-0.791,0.498
14.524,-0.766,0.498
14.500,-0.738,0.497
14.479,-0.712,0.496
14.460,-0.685,0.496
14.442,-0.658,0.495
14.423,-0.631,0.494
14.404,-0.605,0.494
14.386,-0.578,0.493
14.367,-0.552,0.492
14.349,-0.525,0.492
14.331,-0.499,0.491
14.312,-0.473,0.490
14.294,-0.447,0.490
14.276,-0.421,0.489
14.257,-0.395,0.488
14.239,-0.369,0.488
14.221,-0.343,0.487
14.203,-0.317,0.486
14.185,-0.291,0.486
14.167,-0.266,0.485
14.149,-0.240,0.484
14.131,-0.214,0.484
14.117,-0.189,0.483
14.107,-0.164,0.483
13.978,-0.137,0.479
13.979,-0.112,0.479
14.116,-0.088,0.483
14.136,-0.063,0.484
14.141,-0.038,0.484
14.145,-0.013,0.484
14.150,0.013,0.484
14.154,0.038,0.485
14.159,0.063,0.485
14.163,0.089,0.485
14.134,0.114,0.484
14.062,0.138,0.481
14.018,0.163,0.480
14.181,0.190,0.486
14.186,0.215,0.486
14.190,0.241,0.486
14.195,0.266,0.486
14.199,0.292,0.486
14.204,0.317,0.486
14.208,0.343,0.487
14.213,0.368,0.487
14.177,0.392,0.486
14.133,0.416,0.484
14.089,0.440,0.483
14.082,0.465,0.482
14.260,0.497,0.489
14.299,0.524,0.490
14.337,0.551,0.491
14.376,0.578,0.493
14.415,0.605,0.494
14.454,0.633,0.495
14.494,0.660,0.497
14.534,0.688,0.498
14.574,0.716,0.500
14.614,0.744,0.501
14.654,0.773,0.502
14.695,0.801,0.504
14.736,0.830,0.505
14.778,0.859,0.507
14.815,0.887,0.508
14.820,0.914,0.508
14.826,0.941,0.509
14.797,-0.780,0.548
14.710,-0.749,0.545
14.624,-0.719,0.541
14.574,-0.690,0.539
14.538,-0.662,0.538
14.502,-0.635,0.537
14.466,-0.607,0.535
14.430,-0.580,0.534
14.397,-0.553,0.533
14.379,-0.527,0.532
14.361,-0.500,0.531
14.342,-0.474,0.531
14.324,-0.448,0.530
14.306,-0.422,0.529
14.288,-0.396,0.529
14.270,-0.370,0.528
14.237,-0.343,0.527
14.216,-0.317,0.526
14.196,-0.292,0.525
14.176,-0.266,0.524
14.156,-0.240,0.524
14.136,-0.215,0.523
14.118,-0.189,0.522
14.122,-0.164,0.522
14.127,-0.139,0.522
14.131,-0.114,0.523
14.136,-0.088,0.523
14.140,-0.063,0.523
14.145,-0.038,0.523
14.150,-0.013,0.523
14.155,0.013,0.523
14.160,0.038,0.524
14.165,0.063,0.524
14.170,0.089,0.524
14.175,0.114,0.524
14.180,0.139,0.524
14.185,0.165,0.525
14.189,0.190,0.525
14.194,0.215,0.525
14.199,0.241,0.525
14.204,0.266,0.525
14.209,0.292,0.526
14.214,0.317,0.526
14.219,0.343,0.526
14.224,0.368,0.526
14.229,0.394,0.526
14.234,0.419,0.527
14.239,0.445,0.527
14.341,0.474,0.531
14.360,0.500,0.531
14.380,0.527,0.532
14.400,0.553,0.533
14.420,0.580,0.534
14.458,0.607,0.535
14.497,0.635,0.537
14.536,0.662,0.538
14.575,0.690,0.540
14.614,0.718,0.541
14.697,0.749,0.544
14.797,0.780,0.548
14.760,-0.778,0.587
14.673,-0.747,0.584
14.591,-0.717,0.580
14.555,-0.689,0.579
14.519,-0.662,0.577
14.483,-0.634,0.576
14.447,-0.607,0.574
14.412,-0.579,0.573
14.384,-0.552,0.572
14.366,-0.526,0.571
14.348,-0.500,0.570
14.330,-0.474,0.569
14.312,-0.447,0.569
14.293,-0.421,0.568
14.275,-0.395,0.567
14.258,-0.369,0.566
14.244,-0.343,0.566
14.236,-0.318,0.566
14.229,-0.292,0.565
14.221,-0.267,0.565
14.213,-0.241,0.565
14.206,-0.216,0.564
14.198,-0.190,0.564
14.190,-0.165,0.564
14.182,-0.139,0.563
14.175,-0.114,0.563
14.174,-0.089,0.563
14.175,-0.063,0.563
14.175,-0.038,0.563
14.176,-0.013,0.563
14.176,0.013,0.563
14.177,0.038,0.563
14.177,0.063,0.563
14.178,0.089,0.563
14.178,0.114,0.563
14.178,0.139,0.563
14.186,0.165,0.563
14.195,0.190,0.564
14.203,0.216,0.564
14.212,0.241,0.565
14.221,0.267,0.565
14.229,0.292,0.565
14.238,0.318,0.566
14.247,0.343,0.566
14.256,0.369,0.566
14.269,0.395,0.567
14.289,0.421,0.568
14.308,0.447,0.569
14.328,0.473,0.569
14.347,0.500,0.570
14.367,0.526,0.571
14.386,0.553,0.572
14.406,0.579,0.573
14.439,0.606,0.574
14.477,0.634,0.576
14.516,0.661,0.577
14.555,0.689,0.579
14.594,0.717,0.580
14.654,0.746,0.583
14.754,0.778,0.587
14.854,0.810,0.591
14.809,-0.807,0.630
14.722,-0.776,0.626
14.636,-0.745,0.622
14.573,-0.716,0.620
14.537,-0.688,0.618
14.501,-0.661,0.616
14.465,-0.633,0.615
14.429,-0.606,0.613
14.394,-0.579,0.612
14.371,-0.552,0.611
14.353,-0.526,0.610
14.335,-0.499,0.609
14.317,-0.473,0.608
14.299,-0.447,0.607
14.281,-0.421,0.607
14.263,-0.395,0.606
14.245,-0.369,0.605
14.233,-0.343,0.605
14.226,-0.318,0.604
14.218,-0.292,0.604
14.210,-0.266,0.603
14.202,-0.241,0.603
14.195,-0.215,0.603
14.187,-0.190,0.602
14.179,-0.165,0.602
14.172,-0.139,0.602
14.164,-0.114,0.601
14.164,-0.089,0.601
14.165,-0.063,0.601
14.165,-0.038,0.601
14.166,-0.013,0.601
14.166,0.013,0.602
14.166,0.038,0.602
14.167,0.063,0.602
14.167,0.089,0.602
14.168,0.114,0.602
14.168,0.139,0.602
14.175,0.165,0.602
14.184,0.190,0.602
14.192,0.215,0.603
14.201,0.241,0.603
14.210,0.266,0.603
14.219,0.292,0.604
14.227,0.318,0.604
14.236,0.343,0.605
14.245,0.369,0.605
14.256,0.395,0.606
14.276,0.421,0.606
14.295,0.447,0.607
14.314,0.473,0.608
14.334,0.499,0.609
14.353,0.526,0.610
14.373,0.552,0.611
14.393,0.579,0.612
14.420,0.605,0.613
14.458,0.633,0.614
14.497,0.660,0.616
14.536,0.688,0.618
14.575,0.716,0.620
14.614,0.744,0.621
14.711,0.776,0.626
14.811,0.807,0.630
14.772,-0.805,0.669
14.685,-0.774,0.665
14.599,-0.744,0.661
14.554,-0.715,0.659
14.518,-0.687,0.657
14.482,-0.660,0.655
14.447,-0.632,0.654
14.411,-0.605,0.652
14.376,-0.578,0.650
14.358,-0.551,0.650
14.340,-0.525,0.649
14.322,-0.499,0.648
14.304,-0.473,0.647
14.286,-0.447,0.646
14.268,-0.420,0.645
14.250,-0.394,0.644
14.232,-0.369,0.644
14.223,-0.343,0.643
14.215,-0.317,0.643
14.207,-0.292,0.642
14.199,-0.266,0.642
14.192,-0.241,0.642
14.184,-0.215,0.641
14.176,-0.190,0.641
14.169,-0.164,0.641
14.161,-0.139,0.640
14.154,-0.114,0.640
14.154,-0.088,0.640
14.154,-0.063,0.640
14.155,-0.038,0.640
14.155,-0.013,0.640
14.156,0.013,0.640
14.156,0.038,0.640
14.157,0.063,0.640
14.157,0.088,0.640
14.158,0.114,0.640
14.158,0.139,0.640
14.164,0.164,0.640
14.173,0.190,0.641
14.182,0.215,0.641
14.190,0.241,0.642
14.199,0.266,0.642
14.208,0.292,0.642
14.216,0.317,0.643
14.225,0.343,0.643
14.234,0.369,0.644
14.243,0.394,0.644
14.262,0.420,0.645
14.282,0.446,0.646
14.301,0.473,0.647
14.321,0.499,0.648
14.340,0.525,0.649
14.360,0.552,0.650
14.379,0.578,0.651
14.401,0.605,0.652
14.439,0.632,0.653
14.477,0.660,0.655
14.516,0.687,0.657
14.555,0.715,0.659
14.594,0.743,0.661
14.669,0.773,0.664
14.768,0.805,0.669
14.821,-0.834,0.712
14.734,-0.803,0.708
14.648,-0.772,0.703
14.572,-0.742,0.700
14.536,-0.714,0.698
14.500,-0.687,0.696
14.464,-0.659,0.694
14.428,-0.632,0.692
14.393,-0.604,0.691
14.363,-0.577,0.689
14.345,-0.551,0.688
14.327,-0.525,0.687
14.309,-0.498,0.687
14.291,-0.472,0.686
14.273,-0.446,0.685
14.255,-0.420,0.684
14.237,-0.394,0.683
14.219,-0.368,0.682
14.212,-0.343,0.682
14.204,-0.317,0.681
14.196,-0.292,0.681
14.189,-0.266,0.680
14.181,-0.241,0.680
14.173,-0.215,0.680
14.166,-0.190,0.679
14.158,-0.164,0.679
14.150,-0.139,0.679
14.143,-0.114,0.678
14.144,-0.088,0.678
14.144,-0.063,0.678
14.145,-0.038,0.678
14.145,-0.013,0.678
14.146,0.013,0.678
14.146,0.038,0.678
14.146,0.063,0.678
14.147,0.088,0.678
14.147,0.114,0.678
14.148,0.139,0.678
14.154,0.164,0.679
14.162,0.190,0.679
14.171,0.215,0.680
14.179,0.241,0.680
14.188,0.266,0.680
14.197,0.292,0.681
14.205,0.317,0.681
14.214,0.343,0.682
14.223,0.368,0.682
14.231,0.394,0.683
14.249,0.420,0.684
14.269,0.446,0.684
14.288,0.472,0.685
14.307,0.498,0.686
14.327,0.525,0.687
14.346,0.551,0.688
14.366,0.577,0.689
14.386,0.604,0.690
14.420,0.631,0.692
14.458,0.659,0.694
14.497,0.686,0.696
14.536,0.714,0.698
14.575,0.742,0.700
14.627,0.771,0.702
14.726,0.803,0.707
14.826,0.835,0.712
14.789,-0.833,0.751
14.698,-0.801,0.746
14.611,-0.770,0.742
14.554,-0.741,0.739
14.517,-0.713,0.737
14.482,-0.686,0.735
14.446,-0.658,0.733
14.410,-0.631,0.731
14.375,-0.604,0.729
14.350,-0.577,0.728
14.332,-0.550,0.727
14.314,-0.524,0.726
14.296,-0.498,0.725
14.278,-0.472,0.724
14.260,-0.446,0.723
14.242,-0.420,0.722
14.224,-0.394,0.721
14.209,-0.368,0.721
14.201,-0.342,0.720
14.193,-0.317,0.720
14.186,-0.291,0.719
14.178,-0.266,0.719
14.170,-0.240,0.718
14.163,-0.215,0.718
14.155,-0.190,0.718
14.147,-0.164,0.717
14.140,-0.139,0.717
14.133,-0.114,0.716
14.134,-0.088,0.716
14.134,-0.063,0.716
14.135,-0.038,0.717
14.135,-0.013,0.717
14.135,0.013,0.717
14.136,0.038,0.717
14.136,0.063,0.717
14.137,0.088,0.717
14.137,0.114,0.717
14.138,0.139,0.717
14.143,0.164,0.717
14.151,0.190,0.717
14.160,0.215,0.718
14.169,0.240,0.718
14.177,0.266,0.719
14.186,0.291,0.719
14.195,0.317,0.720
14.203,0.342,0.720
14.212,0.368,0.721
14.221,0.394,0.721
14.236,0.420,0.722
14.255,0.446,0.723
14.275,0.472,0.724
14.294,0.498,0.725
14.314,0.524,0.726
14.333,0.550,0.727
14.353,0.577,0.728
14.372,0.603,0.729
14.401,0.630,0.731
14.439,0.658,0.733
14.478,0.686,0.735
14.516,0.713,0.737
14.555,0.741,0.739
14.595,0.769,0.741
14.684,0.800,0.745
14.790,0.833,0.751
14.874,-0.704,0.796
14.865,-0.677,0.795
14.884,-0.652,0.796
14.294,-0.498,0.764
14.274,-0.472,0.763
14.255,-0.446,0.762
14.235,-0.419,0.761
14.217,-0.394,0.760
14.202,-0.368,0.759
14.194,-0.342,0.759
14.186,-0.317,0.758
14.178,-0.291,0.758
14.171,-0.266,0.757
14.163,-0.240,0.757
14.155,-0.215,0.756
14.147,-0.189,0.756
14.140,-0.164,0.756
14.132,-0.139,0.755
14.126,-0.113,0.755
14.126,-0.088,0.755
14.127,-0.063,0.755
14.127,-0.038,0.755
14.127,-0.013,0.755
14.128,0.013,0.755
14.128,0.038,0.755
14.129,0.063,0.755
14.129,0.088,0.755
14.130,0.114,0.755
14.130,0.139,0.755
14.135,0.164,0.755
14.144,0.189,0.756
14.152,0.215,0.756
14.161,0.240,0.757
14.170,0.266,0.757
14.179,0.291,0.758
14.187,0.317,0.758
14.196,0.342,0.759
14.205,0.368,0.759
14.214,0.393,0.760
14.228,0.419,0.761
14.249,0.445,0.762
14.270,0.472,0.763
14.291,0.498,0.764
15.104,0.661,0.808
15.109,0.688,0.808
14.874,-0.704,0.837
14.865,-0.677,0.836
14.884,-0.652,0.837
14.809,0.040,0.832
15.104,0.661,0.849
15.109,0.688,0.850
14.874,-0.704,0.878
14.865,-0.677,0.877
14.884,-0.652,0.878
14.973,-0.013,0.882
14.972,0.013,0.882
15.071,0.094,0.888
15.104,0.661,0.891
15.109,0.688,0.891
14.874,-0.704,0.918
14.865,-0.677,0.918
14.884,-0.652,0.919
15.005,-0.067,0.925
14.968,-0.040,0.923
14.940,-0.013,0.921
14.918,0.013,0.920
14.959,0.040,0.923
15.104,0.661,0.932
15.109,0.688,0.933
14.874,-0.704,0.959
14.865,-0.677,0.959
14.884,-0.652,0.960
14.981,-0.013,0.965
14.973,0.013,0.965
15.104,0.661,0.974
15.109,0.688,0.974
14.874,-0.704,1.000
14.865,-0.677,1.000
14.884,-0.652,1.001
15.104,0.661,1.016
15.109,0.688,1.016
14.874,-0.704,1.041
14.865,-0.677,1.041
14.884,-0.652,1.042
15.104,0.661,1.057
15.109,0.688,1.058
14.874,-0.704,1.082
14.865,-0.677,1.081
14.884,-0.652,1.083
15.104,0.661,1.099
15.109,0.688,1.099
14.874,-0.704,1.123
14.865,-0.677,1.122
14.884,-0.652,1.124
15.107,0.661,1.141
15.112,0.689,1.141
