14.910,-0.706,-0.716
14.908,-0.679,-0.716
14.927,0.653,-0.716
14.906,0.679,-0.715
14.915,0.706,-0.716
14.910,-0.706,-0.675
14.908,-0.679,-0.675
14.927,0.653,-0.675
14.906,0.679,-0.675
14.915,0.706,-0.675
14.910,-0.706,-0.634
14.908,-0.679,-0.634
14.986,-0.335,-0.636
14.498,-0.298,-0.616
14.463,-0.271,-0.614
14.429,-0.245,-0.613
14.394,-0.218,-0.611
14.359,-0.192,-0.610
14.331,-0.166,-0.609
14.341,-0.141,-0.609
14.927,0.653,-0.634
14.906,0.679,-0.634
14.915,0.706,-0.634
14.910,-0.706,-0.593
14.908,-0.679,-0.593
14.979,-0.361,-0.595
14.928,-0.333,-0.593
14.471,-0.297,-0.575
14.436,-0.271,-0.573
14.401,-0.244,-0.572
14.367,-0.218,-0.571
14.333,-0.192,-0.569
14.322,-0.166,-0.569
14.340,-0.141,-0.570
14.360,-0.115,-0.570
14.927,0.653,-0.593
14.906,0.679,-0.593
14.915,0.706,-0.593
14.910,-0.706,-0.552
14.908,-0.679,-0.552
14.973,-0.388,-0.554
14.922,-0.360,-0.552
14.478,-0.323,-0.535
14.444,-0.297,-0.534
14.409,-0.270,-0.533
14.374,-0.244,-0.532
14.340,-0.218,-0.530
14.311,-0.192,-0.529
14.320,-0.166,-0.530
14.340,-0.141,-0.530
14.360,-0.115,-0.531
14.380,-0.090,-0.532
14.400,-0.064,-0.532
14.218,-0.038,-0.526
14.186,-0.013,-0.525
14.194,0.013,-0.525
14.203,0.038,-0.525
14.927,0.653,-0.552
14.906,0.679,-0.552
14.915,0.706,-0.552
14.910,-0.706,-0.511
14.908,-0.679,-0.511
14.966,-0.414,-0.513
14.915,-0.386,-0.511
14.865,-0.358,-0.509
14.451,-0.323,-0.495
14.416,-0.296,-0.494
14.382,-0.270,-0.492
14.347,-0.243,-0.491
14.313,-0.217,-0.490
14.302,-0.192,-0.490
14.320,-0.166,-0.490
14.340,-0.141,-0.491
14.360,-0.115,-0.492
14.380,-0.090,-0.492
14.400,-0.064,-0.493
14.218,-0.038,-0.487
14.186,-0.013,-0.486
14.194,0.013,-0.486
14.203,0.038,-0.486
15.638,0.209,-0.535
15.638,0.237,-0.535
15.639,0.265,-0.535
14.927,0.653,-0.512
14.906,0.679,-0.511
14.915,0.706,-0.511
14.910,-0.706,-0.470
14.908,-0.679,-0.470
14.960,-0.441,-0.471
14.909,-0.413,-0.470
14.858,-0.385,-0.468
14.808,-0.357,-0.467
14.441,-0.322,-0.455
14.407,-0.296,-0.454
14.374,-0.270,-0.453
14.341,-0.243,-0.452
14.308,-0.217,-0.451
14.300,-0.192,-0.450
14.320,-0.166,-0.451
14.340,-0.141,-0.452
14.360,-0.115,-0.452
14.380,-0.090,-0.453
14.400,-0.064,-0.454
14.218,-0.038,-0.448
14.186,-0.013,-0.447
14.178,0.013,-0.447
14.203,0.038,-0.447
15.269,0.068,-0.481
15.240,0.095,-0.480
15.211,0.122,-0.479
15.182,0.149,-0.478
15.153,0.176,-0.477
15.124,0.203,-0.476
15.096,0.229,-0.475
15.079,0.256,-0.475
15.105,0.283,-0.476
15.131,0.311,-0.477
15.157,0.338,-0.477
15.183,0.366,-0.478
15.247,0.395,-0.480
14.927,0.653,-0.471
14.906,0.679,-0.470
14.915,0.706,-0.470
14.910,-0.706,-0.429
14.908,-0.679,-0.429
14.902,-0.439,-0.429
14.852,-0.411,-0.427
14.802,-0.383,-0.426
14.752,-0.356,-0.424
14.456,-0.323,-0.416
14.423,-0.296,-0.415
14.389,-0.270,-0.414
14.356,-0.244,-0.413
14.323,-0.217,-0.412
14.304,-0.192,-0.411
14.320,-0.166,-0.412
14.340,-0.141,-0.412
14.360,-0.115,-0.413
14.380,-0.090,-0.413
14.400,-0.064,-0.414
14.231,-0.038,-0.409
14.194,-0.013,-0.408
14.202,0.013,-0.408
14.480,0.039,-0.416
14.500,0.065,-0.417
15.228,0.095,-0.438
15.199,0.122,-0.437
15.170,0.149,-0.436
15.142,0.176,-0.435
15.113,0.202,-0.435
15.084,0.229,-0.434
15.079,0.256,-0.434
14.259,0.267,-0.410
14.234,0.292,-0.409
14.210,0.317,-0.409
14.185,0.342,-0.408
14.160,0.367,-0.407
14.175,0.392,-0.408
14.201,0.419,-0.409
14.228,0.445,-0.409
14.254,0.471,-0.410
14.927,0.653,-0.430
14.906,0.679,-0.429
14.915,0.706,-0.429
14.910,-0.706,-0.388
14.908,-0.679,-0.388
14.896,-0.466,-0.388
14.845,-0.437,-0.386
14.795,-0.410,-0.385
14.746,-0.382,-0.384
14.696,-0.354,-0.382
14.472,-0.323,-0.377
14.438,-0.296,-0.376
14.404,-0.270,-0.375
14.371,-0.244,-0.374
14.338,-0.218,-0.373
14.310,-0.192,-0.372
14.320,-0.166,-0.373
14.340,-0.141,-0.373
14.360,-0.115,-0.374
14.380,-0.090,-0.374
14.400,-0.064,-0.375
14.420,-0.039,-0.375
14.207,-0.013,-0.370
14.210,0.013,-0.370
14.480,0.039,-0.377
14.500,0.065,-0.377
14.521,0.091,-0.378
14.546,0.117,-0.378
15.159,0.149,-0.394
15.130,0.176,-0.394
15.102,0.202,-0.393
15.073,0.229,-0.392
15.079,0.256,-0.392
14.259,0.267,-0.371
14.234,0.292,-0.370
14.210,0.317,-0.370
14.185,0.342,-0.369
14.160,0.367,-0.368
14.175,0.392,-0.369
14.201,0.419,-0.370
14.228,0.445,-0.370
14.254,0.471,-0.371
14.927,0.653,-0.389
14.906,0.679,-0.388
14.915,0.706,-0.388
14.910,-0.706,-0.347
14.908,-0.679,-0.347
14.889,-0.492,-0.347
14.843,-0.464,-0.346
14.789,-0.436,-0.344
14.739,-0.408,-0.343
14.690,-0.380,-0.342
14.653,-0.353,-0.341
14.492,-0.324,-0.337
14.453,-0.297,-0.336
14.420,-0.270,-0.336
14.386,-0.244,-0.335
14.353,-0.218,-0.334
14.320,-0.192,-0.333
14.320,-0.166,-0.333
14.340,-0.141,-0.334
14.360,-0.115,-0.334
14.380,-0.090,-0.335
14.400,-0.064,-0.335
14.420,-0.039,-0.336
14.207,-0.013,-0.331
14.210,0.013,-0.331
14.480,0.039,-0.337
14.500,0.065,-0.338
14.521,0.091,-0.338
14.541,0.117,-0.338
14.562,0.143,-0.339
15.119,0.175,-0.352
15.090,0.202,-0.351
15.062,0.229,-0.351
15.079,0.256,-0.351
14.259,0.267,-0.332
14.234,0.292,-0.331
14.210,0.317,-0.331
14.185,0.342,-0.330
14.160,0.367,-0.330
14.175,0.392,-0.330
14.201,0.419,-0.331
14.228,0.445,-0.331
14.254,0.471,-0.332
14.927,0.653,-0.348
14.906,0.679,-0.347
14.915,0.706,-0.348
14.910,-0.706,-0.307
14.908,-0.679,-0.306
15.312,-0.561,-0.315
14.883,-0.518,-0.306
14.832,-0.490,-0.305
14.782,-0.462,-0.304
14.741,-0.434,-0.303
14.684,-0.406,-0.302
14.645,-0.379,-0.301
14.645,-0.353,-0.301
14.660,-0.327,-0.301
14.469,-0.297,-0.297
14.435,-0.271,-0.296
14.402,-0.244,-0.296
14.368,-0.218,-0.295
14.335,-0.192,-0.294
14.322,-0.166,-0.294
14.340,-0.141,-0.294
14.360,-0.115,-0.295
14.380,-0.090,-0.295
14.400,-0.064,-0.296
14.420,-0.039,-0.296
14.207,-0.013,-0.292
14.210,0.013,-0.292
14.480,0.039,-0.297
14.500,0.065,-0.298
14.521,0.091,-0.298
14.541,0.117,-0.299
14.562,0.143,-0.299
14.582,0.169,-0.299
14.604,0.196,-0.300
15.054,0.228,-0.309
15.079,0.256,-0.310
14.259,0.267,-0.293
14.234,0.292,-0.292
14.210,0.317,-0.292
14.185,0.342,-0.291
14.176,0.367,-0.291
14.201,0.393,-0.292
14.226,0.419,-0.292
14.251,0.445,-0.293
14.277,0.472,-0.293
15.059,0.525,-0.309
15.025,0.550,-0.309
14.720,0.565,-0.303
14.684,0.590,-0.302
14.701,0.617,-0.302
14.927,0.653,-0.307
14.906,0.679,-0.306
14.915,0.706,-0.307
14.910,-0.706,-0.266
14.908,-0.679,-0.266
14.876,-0.545,-0.265
14.826,-0.516,-0.264
14.740,-0.487,-0.262
14.705,-0.460,-0.262
14.671,-0.432,-0.261
14.638,-0.405,-0.261
14.604,-0.378,-0.260
14.570,-0.351,-0.259
14.537,-0.325,-0.259
14.484,-0.297,-0.258
14.451,-0.271,-0.257
14.417,-0.245,-0.257
14.384,-0.218,-0.256
14.351,-0.192,-0.255
14.326,-0.166,-0.255
14.340,-0.141,-0.255
14.360,-0.115,-0.256
14.380,-0.090,-0.256
14.400,-0.064,-0.256
14.420,-0.039,-0.257
14.207,-0.013,-0.253
14.210,0.013,-0.253
14.423,0.039,-0.257
14.423,0.064,-0.257
14.423,0.090,-0.257
14.423,0.116,-0.257
14.423,0.142,-0.257
14.423,0.167,-0.257
14.423,0.193,-0.257
14.423,0.219,-0.257
14.446,0.245,-0.257
14.259,0.267,-0.254
14.234,0.292,-0.253
14.210,0.317,-0.253
14.220,0.343,-0.253
14.245,0.369,-0.254
14.270,0.395,-0.254
14.296,0.421,-0.255
14.713,0.460,-0.262
14.723,0.486,-0.262
14.654,0.510,-0.261
14.631,0.536,-0.261
14.625,0.562,-0.260
14.641,0.588,-0.261
14.658,0.615,-0.261
14.676,0.642,-0.261
14.694,0.669,-0.262
14.711,0.697,-0.262
14.624,-0.797,-0.221
14.595,-0.769,-0.220
14.567,-0.742,-0.220
14.539,-0.714,-0.219
14.512,-0.687,-0.219
14.484,-0.660,-0.218
14.456,-0.633,-0.218
14.429,-0.606,-0.217
14.402,-0.579,-0.217
14.375,-0.552,-0.217
14.348,-0.525,-0.216
14.321,-0.499,-0.216
14.294,-0.472,-0.215
14.267,-0.446,-0.215
14.241,-0.420,-0.215
14.215,-0.393,-0.214
14.188,-0.367,-0.214
14.164,-0.341,-0.213
14.162,-0.316,-0.213
14.162,-0.291,-0.213
14.162,-0.266,-0.213
14.162,-0.240,-0.213
14.162,-0.215,-0.213
14.162,-0.190,-0.213
14.162,-0.164,-0.213
14.162,-0.139,-0.213
14.162,-0.114,-0.213
14.162,-0.089,-0.213
14.162,-0.063,-0.213
11.295,-0.030,-0.170
11.295,-0.010,-0.170
11.295,0.010,-0.170
11.295,0.030,-0.170
11.295,0.050,-0.170
14.162,0.089,-0.213
14.162,0.114,-0.213
14.162,0.139,-0.213
14.162,0.164,-0.213
14.162,0.190,-0.213
14.162,0.215,-0.213
14.162,0.240,-0.213
14.162,0.266,-0.213
14.162,0.291,-0.213
14.162,0.316,-0.213
14.168,0.342,-0.213
14.194,0.368,-0.214
14.221,0.394,-0.214
14.247,0.420,-0.215
14.274,0.446,-0.215
14.300,0.473,-0.215
14.327,0.499,-0.216
14.354,0.526,-0.216
14.381,0.552,-0.217
14.408,0.579,-0.217
14.435,0.606,-0.218
14.462,0.633,-0.218
14.490,0.660,-0.218
14.517,0.687,-0.219
14.545,0.715,-0.219
14.573,0.742,-0.220
14.600,0.770,-0.220
14.629,0.797,-0.221
14.646,-0.825,-0.181
14.608,-0.796,-0.180
14.580,-0.769,-0.180
14.553,-0.741,-0.180
14.525,-0.714,-0.179
14.498,-0.687,-0.179
14.471,-0.659,-0.178
14.444,-0.632,-0.178
14.417,-0.605,-0.178
14.390,-0.578,-0.177
14.363,-0.552,-0.177
14.337,-0.525,-0.177
14.310,-0.498,-0.176
14.284,-0.472,-0.176
14.257,-0.446,-0.176
14.231,-0.419,-0.175
14.205,-0.393,-0.175
12.467,-0.323,-0.154
12.467,-0.301,-0.154
12.467,-0.278,-0.154
12.467,-0.256,-0.154
12.467,-0.234,-0.154
12.467,-0.211,-0.154
12.467,-0.189,-0.154
12.467,-0.167,-0.154
12.447,-0.144,-0.153
12.418,-0.122,-0.153
12.389,-0.100,-0.153
12.361,-0.077,-0.152
12.332,-0.055,-0.152
11.295,-0.030,-0.139
11.295,-0.010,-0.139
11.295,0.010,-0.139
11.295,0.030,-0.139
11.295,0.050,-0.139
12.333,0.077,-0.152
12.362,0.099,-0.152
12.390,0.122,-0.153
12.419,0.144,-0.153
12.448,0.167,-0.153
12.467,0.189,-0.154
12.467,0.211,-0.154
12.467,0.234,-0.154
12.467,0.256,-0.154
12.467,0.278,-0.154
12.467,0.301,-0.154
12.467,0.323,-0.154
14.211,0.393,-0.175
14.237,0.420,-0.175
14.264,0.446,-0.176
14.290,0.472,-0.176
14.316,0.499,-0.176
14.343,0.525,-0.177
14.370,0.552,-0.177
14.396,0.579,-0.178
14.423,0.606,-0.178
14.450,0.633,-0.178
14.477,0.660,-0.179
14.504,0.687,-0.179
14.532,0.714,-0.179
14.559,0.742,-0.180
14.587,0.769,-0.180
14.614,0.797,-0.180
14.947,-3.689,-0.148
14.947,-3.660,-0.147
15.193,-2.532,-0.148
15.198,-2.505,-0.148
15.202,-2.478,-0.148
15.207,-2.451,-0.148
15.211,-2.424,-0.148
15.215,-2.397,-0.148
15.220,-2.369,-0.148
15.224,-2.342,-0.148
15.228,-2.315,-0.148
15.232,-2.288,-0.148
15.236,-2.261,-0.148
15.240,-2.234,-0.148
15.244,-2.206,-0.148
15.248,-2.179,-0.148
15.252,-2.152,-0.148
15.256,-2.125,-0.148
15.259,-2.097,-0.148
15.263,-2.070,-0.148
15.267,-2.043,-0.148
15.270,-2.016,-0.148
15.274,-1.988,-0.148
15.278,-1.961,-0.148
15.281,-1.934,-0.148
15.284,-1.906,-0.148
15.288,-1.879,-0.148
15.291,-1.852,-0.148
15.294,-1.825,-0.148
15.298,-1.797,-0.148
15.301,-1.770,-0.148
15.304,-1.743,-0.148
15.307,-1.715,-0.148
15.310,-1.688,-0.148
15.313,-1.661,-0.148
15.316,-1.633,-0.148
15.319,-1.606,-0.148
15.322,-1.579,-0.148
15.325,-1.551,-0.148
14.698,-0.933,-0.141
14.698,-0.907,-0.141
14.713,-0.881,-0.141
14.723,-0.855,-0.141
14.646,-0.825,-0.141
14.608,-0.796,-0.140
14.580,-0.769,-0.140
14.553,-0.741,-0.140
14.525,-0.714,-0.139
14.498,-0.687,-0.139
14.471,-0.659,-0.139
14.444,-0.632,-0.139
14.417,-0.605,-0.138
14.390,-0.578,-0.138
14.363,-0.552,-0.138
14.337,-0.525,-0.137
14.310,-0.498,-0.137
14.284,-0.472,-0.137
14.257,-0.446,-0.137
14.231,-0.419,-0.136
14.205,-0.393,-0.136
14.179,-0.367,-0.136
14.158,-0.341,-0.136
14.155,-0.316,-0.136
14.155,-0.291,-0.136
14.038,-0.263,-0.135
14.038,-0.238,-0.135
14.155,-0.215,-0.136
14.155,-0.190,-0.136
14.155,-0.164,-0.136
14.155,-0.139,-0.136
14.155,-0.114,-0.136
14.155,-0.088,-0.136
14.155,-0.063,-0.136
14.155,-0.038,-0.136
14.155,-0.013,-0.136
14.155,0.013,-0.136
14.155,0.038,-0.136
14.155,0.063,-0.136
14.155,0.088,-0.136
14.155,0.114,-0.136
14.155,0.139,-0.136
14.155,0.164,-0.136
14.079,0.189,-0.135
14.079,0.214,-0.135
14.038,0.238,-0.135
14.038,0.263,-0.135
14.155,0.291,-0.136
14.155,0.316,-0.136
14.162,0.341,-0.136
14.185,0.367,-0.136
14.211,0.393,-0.136
14.237,0.420,-0.136
14.264,0.446,-0.137
14.290,0.472,-0.137
14.316,0.499,-0.137
14.343,0.525,-0.138
14.370,0.552,-0.138
14.396,0.579,-0.138
14.423,0.606,-0.138
14.450,0.633,-0.139
14.477,0.660,-0.139
14.504,0.687,-0.139
14.532,0.714,-0.139
14.559,0.742,-0.140
14.587,0.769,-0.140
14.614,0.797,-0.140
15.166,0.854,-0.146
15.160,0.881,-0.146
15.218,0.911,-0.146
14.710,0.907,-0.141
14.710,0.934,-0.141
15.330,1.496,-0.148
15.327,1.524,-0.148
15.325,1.551,-0.148
15.322,1.579,-0.148
15.319,1.606,-0.148
15.316,1.633,-0.148
15.313,1.661,-0.148
15.310,1.688,-0.148
15.307,1.715,-0.148
15.304,1.743,-0.148
15.301,1.770,-0.148
15.298,1.797,-0.148
15.295,1.825,-0.148
15.291,1.852,-0.148
15.288,1.879,-0.148
15.285,1.906,-0.148
15.281,1.934,-0.148
15.278,1.961,-0.148
15.274,1.988,-0.148
15.271,2.016,-0.148
15.267,2.043,-0.148
15.263,2.070,-0.148
15.260,2.097,-0.148
15.256,2.125,-0.148
15.252,2.152,-0.148
15.248,2.179,-0.148
15.244,2.206,-0.148
15.240,2.234,-0.148
15.236,2.261,-0.148
15.232,2.288,-0.148
15.228,2.315,-0.148
15.224,2.342,-0.148
15.220,2.369,-0.148
15.215,2.397,-0.148
15.211,2.424,-0.148
15.207,2.451,-0.148
15.202,2.478,-0.148
15.198,2.505,-0.148
15.193,2.532,-0.148
15.046,3.656,-0.148
14.969,3.665,-0.148
14.969,3.694,-0.148
14.616,-0.797,-0.100
14.588,-0.769,-0.100
14.561,-0.742,-0.100
14.533,-0.714,-0.100
14.506,-0.687,-0.099
14.479,-0.660,-0.099
14.452,-0.633,-0.099
14.425,-0.606,-0.099
14.398,-0.579,-0.099
14.371,-0.552,-0.098
14.344,-0.525,-0.098
14.318,-0.499,-0.098
14.291,-0.472,-0.098
14.265,-0.446,-0.098
14.239,-0.420,-0.097
14.213,-0.393,-0.097
14.186,-0.367,-0.097
14.164,-0.341,-0.097
14.161,-0.316,-0.097
14.161,-0.291,-0.097
14.161,-0.266,-0.097
14.161,-0.240,-0.097
14.161,-0.215,-0.097
14.161,-0.190,-0.097
14.161,-0.164,-0.097
14.161,-0.139,-0.097
14.161,-0.114,-0.097
14.161,-0.088,-0.097
14.161,-0.063,-0.097
14.161,-0.038,-0.097
14.161,-0.013,-0.097
14.161,0.013,-0.097
14.161,0.038,-0.097
14.161,0.063,-0.097
14.161,0.088,-0.097
14.161,0.114,-0.097
14.161,0.139,-0.097
14.161,0.164,-0.097
14.161,0.190,-0.097
14.161,0.215,-0.097
14.161,0.240,-0.097
14.161,0.266,-0.097
14.161,0.291,-0.097
14.161,0.316,-0.097
14.168,0.342,-0.097
14.193,0.368,-0.097
14.219,0.394,-0.097
14.245,0.420,-0.098
14.271,0.446,-0.098
14.298,0.472,-0.098
14.324,0.499,-0.098
14.351,0.526,-0.098
14.377,0.552,-0.098
14.404,0.579,-0.099
14.431,0.606,-0.099
14.458,0.633,-0.099
14.485,0.660,-0.099
14.512,0.687,-0.099
14.540,0.714,-0.100
14.567,0.742,-0.100
14.595,0.769,-0.100
14.622,0.797,-0.100
14.616,-0.797,-0.060
14.588,-0.769,-0.060
14.561,-0.742,-0.060
14.533,-0.714,-0.060
14.437,-0.684,-0.059
14.410,-0.657,-0.059
14.383,-0.630,-0.059
14.356,-0.603,-0.059
14.329,-0.576,-0.059
14.302,-0.549,-0.059
14.283,-0.523,-0.059
14.300,-0.498,-0.059
14.291,-0.472,-0.059
14.265,-0.446,-0.059
14.239,-0.420,-0.058
14.213,-0.393,-0.058
14.186,-0.367,-0.058
14.164,-0.341,-0.058
14.161,-0.316,-0.058
14.161,-0.291,-0.058
14.161,-0.266,-0.058
14.161,-0.240,-0.058
14.161,-0.215,-0.058
14.161,-0.190,-0.058
14.161,-0.164,-0.058
14.161,-0.139,-0.058
14.161,-0.114,-0.058
14.161,-0.088,-0.058
14.161,-0.063,-0.058
14.161,-0.038,-0.058
14.161,-0.013,-0.058
14.161,0.013,-0.058
14.161,0.038,-0.058
14.161,0.063,-0.058
14.161,0.088,-0.058
14.161,0.114,-0.058
14.161,0.139,-0.058
14.161,0.164,-0.058
14.161,0.190,-0.058
14.161,0.215,-0.058
14.161,0.240,-0.058
14.161,0.266,-0.058
14.161,0.291,-0.058
14.161,0.316,-0.058
14.168,0.342,-0.058
14.193,0.368,-0.058
14.219,0.394,-0.058
14.245,0.420,-0.059
14.271,0.446,-0.059
14.298,0.472,-0.059
14.324,0.499,-0.059
14.351,0.526,-0.059
14.377,0.552,-0.059
14.404,0.579,-0.059
14.431,0.606,-0.059
14.458,0.633,-0.059
14.485,0.660,-0.060
14.512,0.687,-0.060
14.540,0.714,-0.060
14.567,0.742,-0.060
14.595,0.769,-0.060
14.622,0.797,-0.060
14.616,-0.797,-0.020
14.588,-0.769,-0.020
14.561,-0.742,-0.020
14.391,-0.707,-0.020
14.364,-0.680,-0.020
14.337,-0.653,-0.020
14.310,-0.626,-0.020
14.283,-0.600,-0.020
14.256,-0.573,-0.020
14.253,-0.547,-0.020
14.275,-0.523,-0.020
14.300,-0.498,-0.020
14.291,-0.472,-0.020
14.265,-0.446,-0.020
14.239,-0.420,-0.019
14.213,-0.393,-0.019
14.186,-0.367,-0.019
14.164,-0.341,-0.019
14.161,-0.316,-0.019
14.161,-0.291,-0.019
14.161,-0.266,-0.019
14.161,-0.240,-0.019
14.161,-0.215,-0.019
14.161,-0.190,-0.019
14.161,-0.164,-0.019
14.161,-0.139,-0.019
14.161,-0.114,-0.019
14.161,-0.088,-0.019
14.161,-0.063,-0.019
14.161,-0.038,-0.019
14.161,-0.013,-0.019
14.161,0.013,-0.019
14.161,0.038,-0.019
14.161,0.063,-0.019
14.161,0.088,-0.019
14.161,0.114,-0.019
14.161,0.139,-0.019
14.161,0.164,-0.019
14.161,0.190,-0.019
14.161,0.215,-0.019
14.161,0.240,-0.019
14.161,0.266,-0.019
14.161,0.291,-0.019
14.161,0.316,-0.019
14.168,0.342,-0.019
14.193,0.368,-0.019
14.219,0.394,-0.019
14.245,0.420,-0.020
14.271,0.446,-0.020
14.298,0.472,-0.020
14.324,0.499,-0.020
14.351,0.526,-0.020
14.377,0.552,-0.020
14.404,0.579,-0.020
14.431,0.606,-0.020
14.458,0.633,-0.020
14.485,0.660,-0.020
14.512,0.687,-0.020
14.540,0.714,-0.020
14.567,0.742,-0.020
14.595,0.769,-0.020
14.622,0.797,-0.020
14.729,-0.961,0.020
14.722,-0.934,0.020
14.722,-0.908,0.020
14.722,-0.882,0.020
14.722,-0.855,0.020
14.722,-0.829,0.020
14.616,-0.797,0.020
14.372,-0.758,0.020
14.345,-0.731,0.020
14.318,-0.704,0.020
14.291,-0.677,0.020
14.265,-0.650,0.020
14.238,-0.623,0.020
14.212,-0.597,0.019
14.202,-0.571,0.019
14.223,-0.546,0.019
14.248,-0.522,0.020
14.272,-0.497,0.020
14.291,-0.472,0.020
14.265,-0.446,0.020
14.239,-0.420,0.019
14.213,-0.393,0.019
14.186,-0.367,0.019
14.164,-0.341,0.019
14.161,-0.316,0.019
14.161,-0.291,0.019
14.161,-0.266,0.019
14.161,-0.240,0.019
14.161,-0.215,0.019
14.161,-0.190,0.019
14.161,-0.164,0.019
14.161,-0.139,0.019
14.161,-0.114,0.019
14.161,-0.088,0.019
14.161,-0.063,0.019
14.161,-0.038,0.019
14.161,-0.013,0.019
14.161,0.013,0.019
14.161,0.038,0.019
14.071,0.063,0.019
14.071,0.088,0.019
14.071,0.113,0.019
14.071,0.138,0.019
14.071,0.163,0.019
14.071,0.188,0.019
14.071,0.214,0.019
14.071,0.239,0.019
14.161,0.266,0.019
14.161,0.291,0.019
14.161,0.316,0.019
14.168,0.342,0.019
14.193,0.368,0.019
14.219,0.394,0.019
14.245,0.420,0.020
14.271,0.446,0.020
14.298,0.472,0.020
14.324,0.499,0.020
14.351,0.526,0.020
14.377,0.552,0.020
14.404,0.579,0.020
14.431,0.606,0.020
14.458,0.633,0.020
14.485,0.660,0.020
14.512,0.687,0.020
14.540,0.714,0.020
14.567,0.742,0.020
14.595,0.769,0.020
14.622,0.797,0.020
14.721,0.829,0.020
14.721,0.855,0.020
14.721,0.882,0.020
14.721,0.908,0.020
14.721,0.934,0.020
14.729,-0.961,0.061
14.722,-0.934,0.061
14.722,-0.908,0.061
14.722,-0.882,0.061
14.722,-0.855,0.061
14.335,-0.807,0.059
14.308,-0.780,0.059
14.281,-0.753,0.059
14.254,-0.726,0.059
14.227,-0.699,0.058
14.200,-0.672,0.058
14.173,-0.646,0.058
14.153,-0.620,0.058
14.174,-0.595,0.058
14.199,-0.571,0.058
14.223,-0.546,0.058
14.248,-0.522,0.059
14.272,-0.497,0.059
14.291,-0.472,0.059
14.265,-0.446,0.059
14.239,-0.420,0.058
14.213,-0.393,0.058
14.186,-0.367,0.058
14.164,-0.341,0.058
14.161,-0.316,0.058
14.161,-0.291,0.058
14.161,-0.266,0.058
14.161,-0.240,0.058
14.096,-0.214,0.058
14.094,-0.189,0.058
14.094,-0.164,0.058
14.094,-0.138,0.058
14.094,-0.113,0.058
14.094,-0.088,0.058
14.161,-0.063,0.058
14.161,-0.038,0.058
14.161,-0.013,0.058
14.161,0.013,0.058
14.161,0.038,0.058
14.071,0.063,0.058
14.071,0.088,0.058
14.071,0.113,0.058
14.071,0.138,0.058
14.071,0.163,0.058
14.071,0.188,0.058
14.071,0.214,0.058
14.071,0.239,0.058
14.161,0.266,0.058
14.161,0.291,0.058
14.161,0.316,0.058
14.168,0.342,0.058
14.193,0.368,0.058
14.171,0.392,0.058
14.146,0.417,0.058
14.136,0.442,0.058
14.160,0.468,0.058
14.187,0.494,0.058
14.213,0.520,0.058
14.239,0.547,0.059
14.261,0.573,0.059
14.274,0.599,0.059
14.301,0.626,0.059
14.327,0.653,0.059
14.354,0.680,0.059
14.380,0.707,0.059
14.427,0.735,0.059
14.454,0.762,0.059
14.481,0.789,0.060
14.509,0.817,0.060
14.721,0.855,0.061
14.721,0.882,0.061
14.721,0.908,0.061
14.721,0.934,0.061
14.729,-0.961,0.101
14.722,-0.934,0.101
14.722,-0.908,0.101
14.722,-0.882,0.101
14.722,-0.855,0.101
14.335,-0.807,0.098
14.308,-0.780,0.098
14.281,-0.753,0.098
14.254,-0.726,0.098
14.227,-0.699,0.097
14.200,-0.672,0.097
14.173,-0.646,0.097
14.153,-0.620,0.097
14.174,-0.595,0.097
14.199,-0.571,0.097
14.223,-0.546,0.097
14.248,-0.522,0.098
14.272,-0.497,0.098
14.291,-0.472,0.098
14.265,-0.446,0.098
14.239,-0.420,0.097
14.213,-0.393,0.097
14.186,-0.367,0.097
14.164,-0.341,0.097
14.161,-0.316,0.097
14.161,-0.291,0.097
14.161,-0.266,0.097
14.161,-0.240,0.097
14.096,-0.214,0.096
14.094,-0.189,0.096
14.094,-0.164,0.096
14.094,-0.138,0.096
14.094,-0.113,0.096
14.094,-0.088,0.096
14.161,-0.063,0.097
14.161,-0.038,0.097
14.161,-0.013,0.097
14.161,0.013,0.097
14.161,0.038,0.097
14.071,0.063,0.096
14.071,0.088,0.096
14.071,0.113,0.096
14.071,0.138,0.096
14.071,0.163,0.096
14.071,0.188,0.096
14.071,0.214,0.096
14.071,0.239,0.096
14.161,0.266,0.097
14.161,0.291,0.097
14.161,0.316,0.097
14.168,0.342,0.097
14.193,0.368,0.097
14.171,0.392,0.097
14.146,0.417,0.097
14.136,0.442,0.097
14.160,0.468,0.097
14.186,0.494,0.097
14.212,0.520,0.097
14.239,0.547,0.098
14.257,0.573,0.098
14.236,0.598,0.098
14.239,0.623,0.098
14.265,0.650,0.098
14.292,0.677,0.098
14.319,0.704,0.098
14.346,0.731,0.098
14.454,0.762,0.099
14.481,0.789,0.099
14.509,0.817,0.099
14.721,0.855,0.101
14.721,0.882,0.101
14.721,0.908,0.101
14.721,0.934,0.101
14.729,-0.961,0.141
14.722,-0.934,0.141
14.722,-0.908,0.141
14.722,-0.882,0.141
14.722,-0.855,0.141
14.722,-0.829,0.141
14.616,-0.797,0.140
14.588,-0.769,0.140
14.384,-0.733,0.138
14.357,-0.706,0.138
14.329,-0.679,0.137
14.302,-0.652,0.137
14.275,-0.625,0.137
14.248,-0.598,0.137
14.231,-0.572,0.136
14.251,-0.547,0.137
14.273,-0.523,0.137
14.275,-0.497,0.137
14.291,-0.472,0.137
14.265,-0.446,0.137
14.239,-0.420,0.137
14.213,-0.393,0.136
14.186,-0.367,0.136
14.164,-0.341,0.136
14.161,-0.316,0.136
14.161,-0.291,0.136
14.161,-0.266,0.136
14.161,-0.240,0.136
14.096,-0.214,0.135
14.094,-0.189,0.135
14.094,-0.164,0.135
14.094,-0.138,0.135
14.094,-0.113,0.135
14.094,-0.088,0.135
14.161,-0.063,0.136
14.161,-0.038,0.136
14.161,-0.013,0.136
14.161,0.013,0.136
14.161,0.038,0.136
14.071,0.063,0.135
14.071,0.088,0.135
14.071,0.113,0.135
14.071,0.138,0.135
14.071,0.163,0.135
14.071,0.188,0.135
14.071,0.214,0.135
14.071,0.239,0.135
14.161,0.266,0.136
14.161,0.291,0.136
14.161,0.316,0.136
14.168,0.342,0.136
14.193,0.368,0.136
14.171,0.392,0.136
14.146,0.417,0.136
14.136,0.442,0.136
14.160,0.468,0.136
14.186,0.494,0.136
14.212,0.520,0.136
14.239,0.547,0.137
14.257,0.573,0.137
14.236,0.598,0.137
14.239,0.623,0.137
14.265,0.650,0.137
14.292,0.677,0.137
14.319,0.704,0.137
14.346,0.731,0.138
14.454,0.762,0.139
14.481,0.789,0.139
14.509,0.817,0.139
14.721,0.855,0.141
14.721,0.882,0.141
14.721,0.908,0.141
14.721,0.934,0.141
14.729,-0.961,0.182
14.722,-0.934,0.182
14.722,-0.908,0.182
14.722,-0.882,0.182
14.722,-0.855,0.182
14.722,-0.829,0.182
14.616,-0.797,0.180
14.588,-0.769,0.180
14.561,-0.742,0.180
14.428,-0.709,0.178
14.400,-0.682,0.178
14.372,-0.655,0.177
14.345,-0.628,0.177
14.317,-0.601,0.177
14.290,-0.574,0.176
14.265,-0.548,0.176
14.275,-0.523,0.176
14.300,-0.498,0.176
14.291,-0.472,0.176
14.265,-0.446,0.176
14.239,-0.420,0.176
14.213,-0.393,0.175
14.186,-0.367,0.175
14.164,-0.341,0.175
14.161,-0.316,0.175
14.161,-0.291,0.175
14.161,-0.266,0.174
14.161,-0.240,0.174
14.096,-0.214,0.174
14.094,-0.189,0.174
14.094,-0.164,0.174
14.094,-0.138,0.174
14.094,-0.113,0.174
14.094,-0.088,0.174
14.161,-0.063,0.174
14.161,-0.038,0.174
14.161,-0.013,0.174
14.161,0.013,0.174
14.161,0.038,0.174
14.071,0.063,0.173
14.071,0.088,0.173
14.071,0.113,0.173
14.071,0.138,0.173
14.071,0.163,0.173
14.071,0.188,0.173
14.071,0.214,0.173
14.071,0.239,0.173
14.161,0.266,0.174
14.161,0.291,0.175
14.161,0.316,0.175
14.168,0.342,0.175
14.193,0.368,0.175
14.171,0.392,0.175
14.146,0.417,0.174
14.136,0.442,0.174
14.160,0.468,0.175
14.186,0.494,0.175
14.212,0.520,0.175
14.239,0.547,0.176
14.257,0.573,0.176
14.236,0.598,0.176
14.239,0.623,0.176
14.265,0.650,0.176
14.292,0.677,0.176
14.319,0.704,0.177
14.346,0.731,0.177
14.454,0.762,0.178
14.481,0.789,0.179
14.509,0.817,0.179
14.721,0.855,0.182
14.721,0.882,0.182
14.721,0.908,0.182
14.721,0.934,0.182
14.729,-0.961,0.222
14.722,-0.934,0.222
14.722,-0.908,0.222
14.722,-0.882,0.222
14.722,-0.855,0.222
14.722,-0.829,0.222
14.616,-0.797,0.220
14.588,-0.769,0.220
14.561,-0.742,0.220
14.533,-0.714,0.219
14.506,-0.687,0.219
14.443,-0.658,0.218
14.416,-0.631,0.217
14.388,-0.604,0.217
14.360,-0.577,0.216
14.333,-0.550,0.216
14.306,-0.524,0.216
14.302,-0.498,0.216
14.291,-0.472,0.215
14.265,-0.446,0.215
14.239,-0.420,0.215
14.213,-0.393,0.214
14.186,-0.367,0.214
14.164,-0.341,0.213
14.161,-0.316,0.213
14.161,-0.291,0.213
14.161,-0.266,0.213
14.161,-0.240,0.213
14.096,-0.214,0.212
14.094,-0.189,0.212
14.094,-0.164,0.212
14.094,-0.138,0.212
14.094,-0.113,0.212
14.094,-0.088,0.212
14.161,-0.063,0.213
14.161,-0.038,0.213
14.161,-0.013,0.213
14.161,0.013,0.213
14.161,0.038,0.213
14.071,0.063,0.212
14.071,0.088,0.212
14.071,0.113,0.212
14.071,0.138,0.212
14.071,0.163,0.212
14.071,0.188,0.212
14.071,0.214,0.212
14.071,0.239,0.212
14.161,0.266,0.213
14.161,0.291,0.213
14.161,0.316,0.213
14.168,0.342,0.213
14.193,0.368,0.214
14.171,0.392,0.213
14.146,0.417,0.213
14.136,0.442,0.213
14.160,0.468,0.213
14.186,0.494,0.214
14.212,0.520,0.214
14.239,0.547,0.215
14.257,0.573,0.215
14.236,0.598,0.215
14.239,0.623,0.215
14.265,0.650,0.215
14.292,0.677,0.215
14.319,0.704,0.216
14.346,0.731,0.216
14.454,0.762,0.218
14.481,0.789,0.218
14.509,0.817,0.219
14.721,0.855,0.222
14.721,0.882,0.222
14.721,0.908,0.222
14.721,0.934,0.222
14.729,-0.961,0.263
14.722,-0.934,0.263
14.722,-0.908,0.263
14.722,-0.882,0.262
14.722,-0.855,0.262
14.722,-0.829,0.262
14.616,-0.797,0.261
14.588,-0.769,0.260
14.561,-0.742,0.259
14.533,-0.714,0.259
14.506,-0.687,0.258
14.479,-0.660,0.258
14.452,-0.633,0.257
14.425,-0.606,0.257
14.398,-0.579,0.256
14.371,-0.552,0.256
14.344,-0.525,0.255
14.318,-0.499,0.255
14.291,-0.472,0.254
14.265,-0.446,0.254
14.239,-0.420,0.254
14.213,-0.393,0.253
14.186,-0.367,0.253
14.164,-0.341,0.252
14.161,-0.316,0.252
14.161,-0.291,0.252
14.161,-0.266,0.252
14.161,-0.240,0.252
14.096,-0.214,0.251
14.094,-0.189,0.251
14.094,-0.164,0.251
14.094,-0.138,0.251
14.094,-0.113,0.251
14.094,-0.088,0.251
14.161,-0.063,0.252
14.161,-0.038,0.252
14.161,-0.013,0.252
14.161,0.013,0.252
14.161,0.038,0.252
14.071,0.063,0.250
14.071,0.088,0.250
14.071,0.113,0.250
14.071,0.138,0.250
14.071,0.163,0.250
14.071,0.188,0.250
14.071,0.214,0.250
14.071,0.239,0.250
14.161,0.266,0.252
14.161,0.291,0.252
14.161,0.316,0.252
14.168,0.342,0.252
14.193,0.368,0.253
14.171,0.392,0.252
14.146,0.417,0.252
14.136,0.442,0.252
14.160,0.468,0.252
14.186,0.494,0.253
14.212,0.520,0.253
14.239,0.547,0.254
14.257,0.573,0.254
14.236,0.598,0.254
14.239,0.623,0.254
14.265,0.650,0.254
14.292,0.677,0.255
14.319,0.704,0.255
14.346,0.731,0.256
14.454,0.762,0.258
14.481,0.789,0.258
14.509,0.817,0.259
14.721,0.855,0.262
14.721,0.882,0.262
14.721,0.908,0.262
14.721,0.934,0.263
14.729,-0.961,0.303
14.722,-0.934,0.303
14.722,-0.908,0.303
14.722,-0.882,0.303
14.722,-0.855,0.303
14.722,-0.829,0.303
14.616,-0.797,0.301
14.588,-0.769,0.300
14.561,-0.742,0.299
14.533,-0.714,0.299
14.506,-0.687,0.298
14.479,-0.660,0.298
14.452,-0.633,0.297
14.425,-0.606,0.296
14.398,-0.579,0.296
14.371,-0.552,0.295
14.344,-0.525,0.295
14.318,-0.499,0.294
14.291,-0.472,0.294
14.265,-0.446,0.293
14.239,-0.420,0.293
14.213,-0.393,0.292
14.186,-0.367,0.291
14.164,-0.341,0.291
14.161,-0.316,0.291
14.161,-0.291,0.291
14.161,-0.266,0.291
14.161,-0.240,0.291
14.096,-0.214,0.290
14.094,-0.189,0.289
14.094,-0.164,0.289
14.094,-0.138,0.289
14.094,-0.113,0.289
14.094,-0.088,0.289
14.161,-0.063,0.291
14.161,-0.038,0.291
14.161,-0.013,0.291
14.161,0.013,0.291
14.161,0.038,0.291
14.161,0.063,0.291
14.161,0.088,0.291
14.161,0.114,0.291
14.161,0.139,0.291
14.161,0.164,0.291
14.161,0.190,0.291
14.161,0.215,0.291
14.161,0.240,0.291
14.161,0.266,0.291
14.161,0.291,0.291
14.161,0.316,0.291
14.168,0.342,0.291
14.193,0.368,0.292
14.171,0.392,0.291
14.146,0.417,0.291
14.136,0.442,0.290
14.160,0.468,0.291
14.186,0.494,0.292
14.212,0.520,0.292
14.239,0.547,0.293
14.257,0.573,0.293
14.236,0.598,0.293
14.239,0.623,0.293
14.265,0.650,0.293
14.292,0.677,0.294
14.319,0.704,0.294
14.346,0.731,0.295
14.454,0.762,0.297
14.481,0.789,0.298
14.509,0.817,0.298
14.721,0.855,0.303
14.721,0.882,0.303
14.721,0.908,0.303
14.721,0.934,0.303
14.729,-0.961,0.344
14.722,-0.934,0.343
14.722,-0.908,0.343
14.722,-0.882,0.343
14.722,-0.855,0.343
14.722,-0.829,0.343
14.616,-0.797,0.341
14.588,-0.769,0.340
14.561,-0.742,0.339
14.533,-0.714,0.339
14.506,-0.687,0.338
14.479,-0.660,0.337
14.452,-0.633,0.337
14.425,-0.606,0.336
14.398,-0.579,0.335
14.371,-0.552,0.335
14.344,-0.525,0.334
14.318,-0.499,0.333
14.291,-0.472,0.333
14.265,-0.446,0.332
14.239,-0.420,0.332
14.213,-0.393,0.331
14.186,-0.367,0.330
14.164,-0.341,0.330
14.161,-0.316,0.330
14.161,-0.291,0.330
14.161,-0.266,0.330
14.161,-0.240,0.330
14.096,-0.214,0.328
14.094,-0.189,0.328
14.094,-0.164,0.328
14.094,-0.138,0.328
14.094,-0.113,0.328
14.094,-0.088,0.328
14.161,-0.063,0.330
14.161,-0.038,0.330
14.161,-0.013,0.330
14.161,0.013,0.330
14.161,0.038,0.330
14.161,0.063,0.330
14.161,0.088,0.330
14.161,0.114,0.330
14.161,0.139,0.330
14.161,0.164,0.330
14.161,0.190,0.330
14.161,0.215,0.330
14.161,0.240,0.330
14.161,0.266,0.330
14.161,0.291,0.330
14.161,0.316,0.330
14.168,0.342,0.330
14.193,0.368,0.330
14.171,0.392,0.330
14.146,0.417,0.329
14.136,0.442,0.329
14.160,0.468,0.330
14.186,0.494,0.330
14.212,0.520,0.331
14.239,0.547,0.332
14.257,0.573,0.332
14.237,0.598,0.332
14.239,0.623,0.332
14.267,0.650,0.332
14.294,0.677,0.333
14.321,0.704,0.334
14.349,0.731,0.334
14.454,0.762,0.337
14.481,0.789,0.338
14.509,0.817,0.338
14.721,0.855,0.343
14.721,0.882,0.343
14.721,0.908,0.343
14.721,0.934,0.343
14.729,-0.961,0.384
14.722,-0.934,0.384
14.722,-0.908,0.384
14.722,-0.882,0.384
14.722,-0.855,0.384
14.722,-0.829,0.384
14.616,-0.797,0.381
14.588,-0.769,0.380
14.561,-0.742,0.379
14.533,-0.714,0.379
14.506,-0.687,0.378
14.479,-0.660,0.377
14.452,-0.633,0.376
14.425,-0.606,0.376
14.398,-0.579,0.375
14.371,-0.552,0.374
14.344,-0.525,0.373
14.318,-0.499,0.373
14.291,-0.472,0.372
14.265,-0.446,0.371
14.239,-0.420,0.371
14.213,-0.393,0.370
14.186,-0.367,0.369
14.164,-0.341,0.369
14.161,-0.316,0.368
14.161,-0.291,0.368
14.161,-0.266,0.368
14.161,-0.240,0.368
14.161,-0.215,0.368
14.161,-0.190,0.368
14.161,-0.164,0.368
14.161,-0.139,0.368
14.161,-0.114,0.368
14.161,-0.088,0.368
14.161,-0.063,0.368
14.161,-0.038,0.368
14.161,-0.013,0.368
14.161,0.013,0.368
14.161,0.038,0.368
14.161,0.063,0.368
14.161,0.088,0.368
14.161,0.114,0.368
14.161,0.139,0.368
14.161,0.164,0.368
14.161,0.190,0.368
14.161,0.215,0.368
14.161,0.240,0.368
14.161,0.266,0.368
14.161,0.291,0.368
14.161,0.316,0.368
14.168,0.342,0.369
14.193,0.368,0.369
14.219,0.394,0.370
14.245,0.420,0.371
14.271,0.446,0.371
14.298,0.472,0.372
14.324,0.499,0.373
14.351,0.526,0.374
14.377,0.552,0.374
14.404,0.579,0.375
14.431,0.606,0.376
14.458,0.633,0.376
14.485,0.660,0.377
14.512,0.687,0.378
14.540,0.714,0.379
14.567,0.742,0.379
14.595,0.769,0.380
14.622,0.797,0.381
14.721,0.829,0.384
14.721,0.855,0.384
14.721,0.882,0.384
14.721,0.908,0.384
14.721,0.934,0.384
14.616,-0.797,0.421
14.588,-0.769,0.420
14.561,-0.742,0.419
14.533,-0.714,0.418
14.506,-0.687,0.418
14.479,-0.660,0.417
14.452,-0.633,0.416
14.425,-0.606,0.415
14.398,-0.579,0.414
14.371,-0.552,0.414
14.344,-0.525,0.413
14.318,-0.499,0.412
14.291,-0.472,0.411
14.265,-0.446,0.410
14.239,-0.420,0.410
14.213,-0.393,0.409
14.186,-0.367,0.408
14.164,-0.341,0.407
14.161,-0.316,0.407
14.161,-0.291,0.407
14.161,-0.266,0.407
14.161,-0.240,0.407
14.161,-0.215,0.407
14.161,-0.190,0.407
14.161,-0.164,0.407
14.105,-0.139,0.406
14.161,-0.114,0.407
14.161,-0.088,0.407
14.161,-0.063,0.407
14.161,-0.038,0.407
14.161,-0.013,0.407
14.161,0.013,0.407
14.161,0.038,0.407
14.161,0.063,0.407
14.161,0.088,0.407
14.161,0.114,0.407
14.156,0.139,0.407
14.161,0.164,0.407
14.161,0.190,0.407
14.161,0.215,0.407
14.161,0.240,0.407
14.161,0.266,0.407
14.161,0.291,0.407
14.161,0.316,0.407
14.168,0.342,0.408
14.193,0.368,0.408
14.219,0.394,0.409
14.245,0.420,0.410
14.271,0.446,0.411
14.298,0.472,0.411
14.324,0.499,0.412
14.351,0.526,0.413
14.377,0.552,0.414
14.404,0.579,0.415
14.431,0.606,0.415
14.458,0.633,0.416
14.485,0.660,0.417
14.512,0.687,0.418
14.540,0.714,0.419
14.567,0.742,0.419
14.595,0.769,0.420
14.622,0.797,0.421
15.251,-0.941,0.481
15.242,-0.913,0.481
14.988,-0.871,0.473
14.961,-0.842,0.472
14.616,-0.797,0.461
14.588,-0.769,0.460
14.561,-0.742,0.459
14.533,-0.714,0.458
14.506,-0.687,0.457
14.479,-0.660,0.456
14.452,-0.633,0.456
14.425,-0.606,0.455
14.398,-0.579,0.454
14.371,-0.552,0.453
14.344,-0.525,0.452
14.318,-0.499,0.451
14.291,-0.472,0.450
14.265,-0.446,0.449
14.239,-0.420,0.449
14.213,-0.393,0.448
14.186,-0.367,0.447
14.164,-0.341,0.446
14.161,-0.316,0.446
14.161,-0.291,0.446
14.161,-0.266,0.446
14.161,-0.240,0.446
14.161,-0.215,0.446
14.161,-0.190,0.446
14.161,-0.164,0.446
14.161,-0.139,0.446
14.161,-0.114,0.446
14.161,-0.088,0.446
14.161,-0.063,0.446
14.161,-0.038,0.446
14.161,-0.013,0.446
14.161,0.013,0.446
14.161,0.038,0.446
14.161,0.063,0.446
14.161,0.088,0.446
14.161,0.114,0.446
14.161,0.139,0.446
14.161,0.164,0.446
14.161,0.190,0.446
14.161,0.215,0.446
14.161,0.240,0.446
14.161,0.266,0.446
14.161,0.291,0.446
14.161,0.316,0.446
14.168,0.342,0.446
14.193,0.368,0.447
14.219,0.394,0.448
14.245,0.420,0.449
14.271,0.446,0.450
14.298,0.472,0.451
14.324,0.499,0.451
14.351,0.526,0.452
14.377,0.552,0.453
14.404,0.579,0.454
14.431,0.606,0.455
14.458,0.633,0.456
14.485,0.660,0.457
14.512,0.687,0.458
14.540,0.714,0.458
14.567,0.742,0.459
14.595,0.769,0.460
14.622,0.797,0.461
14.967,0.843,0.472
14.994,0.871,0.473
15.244,0.913,0.481
15.253,0.941,0.481
14.661,-0.957,0.503
14.662,-0.931,0.503
14.663,-0.904,0.503
14.663,-0.878,0.503
14.664,-0.852,0.503
14.664,-0.826,0.503
14.616,-0.797,0.501
14.588,-0.769,0.500
14.561,-0.742,0.499
14.533,-0.714,0.498
14.506,-0.687,0.497
14.479,-0.660,0.496
14.452,-0.633,0.495
14.425,-0.606,0.494
14.398,-0.579,0.493
14.371,-0.552,0.492
14.344,-0.525,0.491
14.318,-0.499,0.490
14.291,-0.472,0.490
14.265,-0.446,0.489
14.239,-0.420,0.488
14.213,-0.393,0.487
14.186,-0.367,0.486
14.164,-0.341,0.485
14.017,-0.313,0.480
14.014,-0.288,0.480
14.077,-0.264,0.482
14.148,-0.240,0.484
14.161,-0.215,0.485
14.161,-0.190,0.485
14.161,-0.164,0.485
14.161,-0.139,0.485
14.161,-0.114,0.485
14.161,-0.088,0.485
14.161,-0.063,0.485
14.120,-0.038,0.483
14.005,-0.013,0.479
14.007,0.013,0.480
14.160,0.038,0.485
14.161,0.063,0.485
14.161,0.088,0.485
14.161,0.114,0.485
14.161,0.139,0.485
14.161,0.164,0.485
14.161,0.190,0.485
14.161,0.215,0.485
14.131,0.240,0.484
14.060,0.264,0.481
14.014,0.288,0.480
14.021,0.313,0.480
14.168,0.342,0.485
14.193,0.368,0.486
14.219,0.394,0.487
14.245,0.420,0.488
14.271,0.446,0.489
14.298,0.472,0.490
14.324,0.499,0.491
14.351,0.526,0.492
14.377,0.552,0.493
14.404,0.579,0.494
14.431,0.606,0.494
14.458,0.633,0.495
14.485,0.660,0.496
14.512,0.687,0.497
14.540,0.714,0.498
14.567,0.742,0.499
14.595,0.769,0.500
14.622,0.797,0.501
14.664,0.826,0.503
14.664,0.852,0.503
14.663,0.878,0.503
14.662,0.904,0.503
14.662,0.931,0.503
14.666,0.957,0.503
14.781,-0.779,0.547
14.685,-0.748,0.544
14.630,-0.719,0.542
14.574,-0.690,0.540
14.520,-0.662,0.537
14.485,-0.634,0.536
14.459,-0.607,0.535
14.432,-0.580,0.534
14.406,-0.553,0.533
14.379,-0.527,0.532
14.353,-0.500,0.531
14.328,-0.473,0.530
14.315,-0.447,0.530
14.302,-0.421,0.529
14.230,-0.394,0.526
14.200,-0.368,0.525
14.171,-0.342,0.524
14.167,-0.316,0.524
14.167,-0.291,0.524
14.167,-0.266,0.524
14.167,-0.240,0.524
14.167,-0.215,0.524
14.167,-0.190,0.524
14.167,-0.164,0.524
14.167,-0.139,0.524
14.167,-0.114,0.524
14.167,-0.089,0.524
14.167,-0.063,0.524
14.167,-0.038,0.524
14.167,-0.013,0.524
14.167,0.013,0.524
14.167,0.038,0.524
14.167,0.063,0.524
14.167,0.089,0.524
14.167,0.114,0.524
14.167,0.139,0.524
14.167,0.164,0.524
14.167,0.190,0.524
14.167,0.215,0.524
14.167,0.240,0.524
14.167,0.266,0.524
14.167,0.291,0.524
14.167,0.316,0.524
14.177,0.342,0.524
14.207,0.368,0.526
14.237,0.394,0.527
14.305,0.422,0.529
14.318,0.448,0.530
14.333,0.474,0.530
14.359,0.500,0.531
14.386,0.527,0.532
14.412,0.554,0.533
14.438,0.580,0.534
14.465,0.607,0.535
14.492,0.634,0.536
14.532,0.662,0.538
14.587,0.691,0.540
14.643,0.720,0.542
14.698,0.749,0.544
14.833,0.782,0.549
14.916,-0.813,0.593
14.716,-0.776,0.585
14.660,-0.747,0.583
14.604,-0.718,0.581
14.549,-0.689,0.579
14.497,-0.660,0.576
14.470,-0.633,0.575
14.443,-0.606,0.574
14.417,-0.579,0.573
14.391,-0.553,0.572
14.364,-0.526,0.571
14.338,-0.499,0.570
14.316,-0.473,0.569
14.303,-0.447,0.568
14.290,-0.421,0.568
14.277,-0.395,0.567
14.264,-0.369,0.567
14.251,-0.344,0.566
14.238,-0.318,0.566
14.225,-0.292,0.565
14.212,-0.266,0.565
14.204,-0.241,0.564
14.200,-0.216,0.564
14.196,-0.190,0.564
14.192,-0.165,0.564
14.188,-0.139,0.564
14.184,-0.114,0.563
14.180,-0.089,0.563
14.176,-0.063,0.563
14.172,-0.038,0.563
14.168,-0.013,0.563
14.169,0.013,0.563
14.173,0.038,0.563
14.177,0.063,0.563
14.181,0.089,0.563
14.185,0.114,0.563
14.189,0.139,0.564
14.193,0.165,0.564
14.197,0.190,0.564
14.201,0.216,0.564
14.205,0.241,0.564
14.215,0.267,0.565
14.228,0.292,0.565
14.241,0.318,0.566
14.254,0.344,0.566
14.267,0.369,0.567
14.280,0.395,0.567
14.293,0.421,0.568
14.306,0.447,0.568
14.319,0.473,0.569
14.344,0.500,0.570
14.370,0.526,0.571
14.397,0.553,0.572
14.423,0.580,0.573
14.450,0.607,0.574
14.476,0.634,0.576
14.507,0.661,0.577
14.562,0.690,0.579
14.617,0.718,0.581
14.673,0.747,0.584
14.739,0.777,0.586
14.969,0.816,0.595
14.821,-0.808,0.630
14.690,-0.774,0.625
14.634,-0.745,0.622
14.579,-0.716,0.620
14.524,-0.688,0.617
14.481,-0.660,0.616
14.455,-0.633,0.614
14.428,-0.606,0.613
14.402,-0.579,0.612
14.375,-0.552,0.611
14.349,-0.525,0.610
14.323,-0.499,0.609
14.304,-0.473,0.608
14.291,-0.447,0.607
14.278,-0.421,0.607
14.265,-0.395,0.606
14.252,-0.369,0.605
14.239,-0.343,0.605
14.226,-0.318,0.604
14.213,-0.292,0.604
14.200,-0.266,0.603
14.193,-0.241,0.603
14.189,-0.215,0.603
14.185,-0.190,0.602
14.181,-0.165,0.602
14.177,-0.139,0.602
14.173,-0.114,0.602
14.170,-0.089,0.602
14.166,-0.063,0.601
14.162,-0.038,0.601
14.158,-0.013,0.601
14.159,0.013,0.601
14.163,0.038,0.601
14.166,0.063,0.602
14.170,0.089,0.602
14.174,0.114,0.602
14.178,0.139,0.602
14.182,0.165,0.602
14.186,0.190,0.602
14.190,0.215,0.603
14.194,0.241,0.603
14.204,0.266,0.603
14.216,0.292,0.604
14.229,0.318,0.604
14.242,0.343,0.605
14.255,0.369,0.605
14.268,0.395,0.606
14.281,0.421,0.607
14.294,0.447,0.607
14.307,0.473,0.608
14.329,0.499,0.609
14.355,0.526,0.610
14.382,0.552,0.611
14.408,0.579,0.612
14.434,0.606,0.613
14.461,0.633,0.615
14.488,0.660,0.616
14.537,0.688,0.618
14.592,0.717,0.620
14.647,0.746,0.623
14.703,0.775,0.625
14.873,0.811,0.632
14.957,-0.842,0.677
14.726,-0.803,0.667
14.665,-0.773,0.664
14.609,-0.744,0.661
14.554,-0.715,0.659
14.499,-0.687,0.656
14.466,-0.659,0.655
14.439,-0.632,0.653
14.413,-0.605,0.652
14.387,-0.578,0.651
14.360,-0.552,0.650
14.334,-0.525,0.648
14.308,-0.498,0.647
14.292,-0.472,0.646
14.279,-0.446,0.646
14.266,-0.420,0.645
14.253,-0.395,0.645
14.240,-0.369,0.644
14.228,-0.343,0.643
14.215,-0.317,0.643
14.202,-0.292,0.642
14.189,-0.266,0.642
14.183,-0.241,0.641
14.179,-0.215,0.641
14.175,-0.190,0.641
14.171,-0.164,0.641
14.167,-0.139,0.640
14.163,-0.114,0.640
14.159,-0.088,0.640
14.155,-0.063,0.640
14.151,-0.038,0.640
14.147,-0.013,0.640
14.148,0.013,0.640
14.152,0.038,0.640
14.156,0.063,0.640
14.160,0.088,0.640
14.164,0.114,0.640
14.168,0.139,0.640
14.172,0.164,0.641
14.176,0.190,0.641
14.180,0.215,0.641
14.184,0.241,0.641
14.192,0.266,0.642
14.205,0.292,0.642
14.218,0.317,0.643
14.231,0.343,0.643
14.244,0.369,0.644
14.257,0.395,0.645
14.270,0.421,0.645
14.283,0.446,0.646
14.296,0.472,0.647
14.314,0.499,0.647
14.340,0.525,0.649
14.366,0.552,0.650
14.393,0.579,0.651
14.419,0.605,0.652
14.446,0.632,0.654
14.472,0.659,0.655
14.512,0.687,0.657
14.567,0.716,0.659
14.622,0.745,0.662
14.677,0.774,0.664
14.778,0.806,0.669
14.861,-0.837,0.714
14.695,-0.801,0.706
14.639,-0.772,0.703
14.584,-0.743,0.700
14.529,-0.714,0.697
14.477,-0.686,0.695
14.451,-0.658,0.694
14.424,-0.631,0.692
14.398,-0.604,0.691
14.371,-0.578,0.690
14.345,-0.551,0.688
14.319,-0.524,0.687
14.294,-0.498,0.686
14.281,-0.472,0.685
14.268,-0.446,0.684
14.255,-0.420,0.684
14.242,-0.394,0.683
14.229,-0.368,0.682
14.216,-0.343,0.682
14.203,-0.317,0.681
14.190,-0.291,0.681
14.177,-0.266,0.680
14.173,-0.240,0.680
14.169,-0.215,0.679
14.165,-0.190,0.679
14.161,-0.164,0.679
14.157,-0.139,0.679
14.153,-0.114,0.679
14.149,-0.088,0.678
14.145,-0.063,0.678
14.141,-0.038,0.678
14.137,-0.013,0.678
14.138,0.013,0.678
14.142,0.038,0.678
14.146,0.063,0.678
14.150,0.088,0.678
14.154,0.114,0.679
14.158,0.139,0.679
14.162,0.164,0.679
14.166,0.190,0.679
14.170,0.215,0.679
14.174,0.240,0.680
14.180,0.266,0.680
14.193,0.291,0.681
14.206,0.317,0.681
14.219,0.343,0.682
14.232,0.369,0.683
14.245,0.394,0.683
14.258,0.420,0.684
14.271,0.446,0.685
14.284,0.472,0.685
14.299,0.498,0.686
14.325,0.525,0.687
14.351,0.551,0.689
14.377,0.578,0.690
14.404,0.605,0.691
14.430,0.632,0.693
14.457,0.659,0.694
14.487,0.686,0.695
14.541,0.715,0.698
14.596,0.743,0.701
14.652,0.772,0.703
14.708,0.802,0.706
14.913,0.840,0.716
14.779,-0.832,0.750
14.669,-0.800,0.745
14.614,-0.770,0.742
14.558,-0.741,0.739
14.504,-0.713,0.736
14.462,-0.685,0.734
14.435,-0.658,0.733
14.409,-0.631,0.731
14.382,-0.604,0.730
14.356,-0.577,0.728
14.330,-0.550,0.727
14.304,-0.524,0.726
14.282,-0.497,0.724
14.269,-0.472,0.724
14.256,-0.446,0.723
14.243,-0.420,0.722
14.230,-0.394,0.722
14.217,-0.368,0.721
14.204,-0.342,0.720
14.191,-0.317,0.720
14.179,-0.291,0.719
14.166,-0.266,0.718
14.162,-0.240,0.718
14.158,-0.215,0.718
14.154,-0.190,0.718
14.150,-0.164,0.717
14.146,-0.139,0.717
14.142,-0.114,0.717
14.139,-0.088,0.717
14.135,-0.063,0.717
14.131,-0.038,0.716
14.127,-0.013,0.716
14.128,0.013,0.716
14.132,0.038,0.716
14.135,0.063,0.717
14.139,0.088,0.717
14.143,0.114,0.717
14.147,0.139,0.717
14.151,0.164,0.717
14.155,0.190,0.718
14.159,0.215,0.718
14.163,0.240,0.718
14.169,0.266,0.718
14.182,0.291,0.719
14.195,0.317,0.720
14.207,0.343,0.720
14.220,0.368,0.721
14.233,0.394,0.722
14.246,0.420,0.722
14.259,0.446,0.723
14.272,0.472,0.724
14.285,0.498,0.725
14.310,0.524,0.726
14.336,0.551,0.727
14.362,0.577,0.729
14.389,0.604,0.730
14.415,0.631,0.731
14.441,0.658,0.733
14.468,0.685,0.734
14.516,0.713,0.737
14.571,0.742,0.740
14.626,0.771,0.742
14.683,0.800,0.745
14.838,0.835,0.753
14.991,-0.710,0.802
14.986,-0.683,0.802
15.012,-0.657,0.803
14.279,-0.497,0.763
14.265,-0.471,0.763
14.251,-0.445,0.762
14.237,-0.420,0.761
14.223,-0.394,0.760
14.210,-0.368,0.760
14.197,-0.342,0.759
14.184,-0.317,0.758
14.171,-0.291,0.757
14.159,-0.265,0.757
14.155,-0.240,0.757
14.151,-0.215,0.756
14.147,-0.189,0.756
14.143,-0.164,0.756
14.139,-0.139,0.756
14.135,-0.114,0.755
14.131,-0.088,0.755
14.127,-0.063,0.755
14.123,-0.038,0.755
14.119,-0.013,0.754
14.120,0.013,0.755
14.124,0.038,0.755
14.128,0.063,0.755
14.132,0.088,0.755
14.136,0.114,0.755
14.140,0.139,0.756
14.144,0.164,0.756
14.148,0.189,0.756
14.152,0.215,0.756
14.156,0.240,0.757
14.161,0.266,0.757
14.174,0.291,0.758
14.187,0.317,0.758
14.200,0.342,0.759
14.213,0.368,0.760
14.226,0.394,0.760
14.240,0.420,0.761
14.254,0.446,0.762
14.268,0.471,0.763
14.282,0.497,0.764
14.999,0.657,0.802
14.984,0.683,0.802
14.998,0.710,0.802
14.991,-0.710,0.843
14.986,-0.683,0.843
15.012,-0.657,0.844
15.080,-0.148,0.847
15.080,0.148,0.847
14.999,0.657,0.843
14.984,0.683,0.843
14.998,0.710,0.844
14.991,-0.710,0.884
14.986,-0.683,0.884
15.012,-0.657,0.886
15.054,-0.094,0.887
14.973,-0.013,0.882
14.973,0.013,0.882
15.054,0.094,0.887
14.999,0.657,0.885
14.984,0.683,0.884
14.998,0.710,0.885
14.991,-0.710,0.926
14.986,-0.683,0.925
15.012,-0.657,0.927
15.021,-0.067,0.926
14.967,-0.040,0.923
14.930,-0.013,0.921
14.931,0.013,0.921
14.967,0.040,0.923
15.020,0.067,0.926
14.999,0.657,0.926
14.984,0.683,0.925
14.998,0.710,0.926
14.991,-0.710,0.967
14.986,-0.683,0.966
15.012,-0.657,0.968
14.979,-0.013,0.965
14.979,0.013,0.965
14.999,0.657,0.967
14.984,0.683,0.966
14.998,0.710,0.967
14.991,-0.710,1.008
14.986,-0.683,1.008
15.012,-0.657,1.009
14.999,0.657,1.009
14.984,0.683,1.008
14.998,0.710,1.009
14.991,-0.710,1.049
14.986,-0.683,1.049
15.012,-0.657,1.051
14.999,0.657,1.050
14.984,0.683,1.049
14.998,0.710,1.050
14.991,-0.710,1.091
14.986,-0.683,1.090
15.012,-0.657,1.092
14.999,0.657,1.091
14.984,0.683,1.090
14.998,0.710,1.091
14.991,-0.710,1.132
14.986,-0.683,1.132
15.012,-0.657,1.133
14.999,0.657,1.132
14.984,0.683,1.131
14.998,0.710,1.133
